# .PCD v0.7 - Point Cloud Data file format
VERSION 0.7
FIELDS x y z normal_x normal_y normal_z
SIZE 4 4 4 4 4 4
TYPE F F F F F F
COUNT 1 1 1 1 1 1
WIDTH 733
HEIGHT 1
VIEWPOINT 0 0 0 1 0 0 0
POINTS 733
DATA ascii
-23.835154 -32.449467 -22.90612 0.71869856 -0.19022244 0.66879576
-21.400562 -23.223284 -22.829128 0.58160317 -0.1264496 0.80358464
-20.026306 -17.424747 -23.25927 0.5734973 -0.016151408 0.81904817
-11.847286 1.8276801 -25.694508 0.26453549 -0.086909011 0.96045184
-19.637075 -20.399923 -23.62657 0.56623578 -0.059948929 0.82206035
-32.204109 -33.310356 -13.878688 -0.86199158 0.1657494 -0.47905919
-17.204279 -15.656743 -24.729656 0.35089505 -0.11528265 0.92929137
-16.82662 -8.0561028 -25.513462 0.23673913 -0.23150408 0.94358909
-11.730423 -1.0791272 -25.989725 0.21675043 -0.18125549 0.95925266
-8.2669163 7.2401533 -25.341318 0.0032478394 -0.14214085 0.9898411
-18.941963 -17.935726 -24.060329 0.57938749 -0.012163634 0.81496143
-17.687426 -12.136344 -24.817516 0.17277966 -0.0042893933 0.9849512
-15.0717 -7.7516365 -25.740486 0.26626751 -0.2356838 0.93464148
-17.942577 -21.822262 -24.806925 0.54426521 -0.074415796 0.8356061
-16.286243 -10.304708 -25.71155 0.34060523 0.10730224 0.93406337
-14.836943 -6.0528059 -25.796141 0.3118943 -0.10918308 0.94382256
-10.084746 0.083546236 -26.069933 0.17476688 -0.18059771 0.96790546
-17.414753 -19.731098 -25.189116 0.52969766 0.0028361038 0.84818178
-16.215508 -13.688869 -24.983232 0.40255862 -0.030983593 0.91486967
-15.489603 -12.672171 -25.519028 0.43624362 0.020238711 0.89960092
-13.235111 -7.5733786 -26.109755 0.20271686 -0.27793726 0.9389658
-12.640285 -3.6240466 -26.038572 0.24685004 -0.016181767 0.96891856
-11.963778 -2.5589986 -26.348715 0.275554 -0.060151793 0.95940185
-18.109423 -33.265442 36.698769 -0.50567937 0.094633818 0.85751551
-14.42439 -4.1546206 -25.538286 0.27507895 -0.024343187 0.96111339
-11.937833 -5.3622031 -26.313972 0.24543399 0.027522415 0.96902251
-16.159271 -16.500751 -25.681236 0.39561582 -0.16950083 0.90263927
-14.927544 -11.749615 -25.863615 0.36502445 0.12486097 0.9225871
-13.656481 -8.4630327 -27.06831 0.45358154 -0.48689273 0.74645782
-10.128926 -3.5629942 -26.643339 0.1670642 0.02442703 0.98564339
-10.056027 -2.0165863 -26.735228 0.23680522 -0.18055107 0.9546333
-13.898921 -10.942539 -26.390226 0.37826568 0.098746784 0.92041528
-10.931819 -7.4474168 -26.431484 0.19620797 -0.13254233 0.97156316
-26.885044 -35.885075 29.904325 -0.71614921 0.20676661 0.6666168
-16.324451 -19.019268 -25.708105 0.42245862 -0.0058647064 0.90636331
-12.926966 -10.49402 -26.948261 0.42865241 0.18510593 0.88430369
-14.829905 -15.723241 -25.981333 0.4468388 -0.13331825 0.88462502
-13.630364 -16.856712 -26.859737 0.40834051 -0.086568564 0.90871555
-13.694491 -14.19901 -26.330498 0.38071334 -0.072273292 0.92186445
16.937519 42.524368 6.2288775 -0.089143731 0.99587709 0.016795851
-16.617941 -21.849625 -25.605139 0.44499874 -0.15567459 0.88189656
-11.251202 -14.685989 -27.260595 0.27998894 -0.19990772 0.93895853
-14.770233 -21.502268 -26.377045 0.39519349 -0.15341151 0.90569693
-14.804725 -18.370647 -26.447451 0.41512135 -0.048760999 0.90845841
-12.038038 -12.939603 -26.927355 0.33130571 0.023593612 0.94322842
-10.262964 -12.815468 -27.339766 0.21104616 -0.070235342 0.97494948
-13.644437 -19.901381 -26.955126 0.40141535 -0.025953349 0.91552836
-12.651929 -22.642145 -27.5576 0.34062746 -0.18063396 0.92268324
-12.30455 -20.355927 -27.48278 0.35271695 -0.029169891 0.93527532
-8.8138599 -14.525783 -27.739557 0.20254345 -0.2537618 0.94582301
-11.303 -20.22057 -27.749472 0.35621777 -0.044111505 0.93336117
-12.045051 -16.350155 -27.488514 0.3463113 -0.10779317 0.93190616
-9.3164587 -18.851767 -28.40346 0.2417091 -0.06331373 0.96828103
-9.8337803 -15.801126 -28.232718 0.31083649 -0.19546233 0.93014795
-10.943511 -18.707315 -28.023655 0.31704512 -0.030722003 0.94791269
-10.348975 -21.594252 -28.287651 0.31587338 -0.098337337 0.94369155
-10.441845 -24.333584 -28.691959 0.28189912 -0.20117059 0.93811691
-7.644361 -21.472393 -28.852839 0.073874094 -0.1225769 0.98970574
-8.4765339 -23.05596 -28.986851 0.23094124 -0.13215494 0.96395081
-18.860519 -21.131969 34.698883 -0.53244573 0.13295431 0.83595741
-14.596924 -33.090744 38.627739 -0.4530063 0.12490235 0.88271439
-7.9121933 37.432865 31.748041 -0.31017876 0.09253224 0.94616431
-7.1988173 20.580273 34.283298 -0.27866051 0.14136845 0.94992805
-29.538792 -2.9986939 17.759184 0.91489822 -0.089274622 -0.3936891
26.238092 42.256115 9.082201 0.71127623 0.66609985 0.22449303
25.704004 41.89785 11.684816 0.3861551 0.92189515 -0.031519808
-9.1466684 -2.6526711 36.713558 -0.28860196 0.10716613 0.95143276
-30.176779 0.09055341 16.309925 0.93607163 -0.058821049 -0.34685743
6.3540182 41.604847 -8.4156914 0.058234386 0.99789643 -0.028485809
-30.868879 0.2810117 14.105026 0.94545555 -0.12233984 -0.3019051
17.746746 41.962563 5.4857655 -0.066166423 0.99538708 -0.069474466
18.314732 42.478535 4.2605662 -0.12746114 0.98357517 0.12780268
-0.01034577 41.891804 23.028713 -0.10603964 0.99236101 -0.063049965
-2.4222276 42.073002 23.523121 -0.024836402 0.9560504 -0.29214853
1.8101557 42.068592 23.886198 -0.02975882 0.98958457 -0.14084335
-5.6107769 41.110973 21.75975 -0.11846423 0.99295682 0.001681161
-7.9499722 41.938725 22.506168 0.20115924 0.80993241 -0.55094862
-7.2764878 41.035351 21.424046 0.14378031 0.98878598 -0.040365692
1.8132533 41.751083 21.654684 0.024692602 0.99969316 -0.0019370695
-4.3786001 41.402138 21.118866 -0.00011915379 0.99791443 0.064550556
-6.6167769 41.615162 20.477861 0.0065897461 0.99655277 0.082698599
-5.7077365 41.533966 19.943743 -0.12467379 0.98079741 0.14997672
1.8654104 41.879745 19.957466 0.024314933 0.99958217 -0.015626574
-2.0528159 41.751102 19.816446 -0.10869958 0.98882854 0.10199296
-4.4919467 41.768257 19.557613 -0.00092385517 0.99915582 0.04107077
4.4757004 41.783382 20.133896 -0.02016519 0.99979043 -0.0035350686
-8.0060158 41.068481 19.031445 0.05245607 0.99167246 0.11761857
0.074597821 41.894165 19.971989 -0.015113116 0.99937141 -0.032066036
-4.4596672 41.453259 18.319633 -0.012464706 0.99964178 0.023685193
-9.5495338 41.799866 19.823057 0.093019389 0.99558395 -0.012651384
7.4064293 41.968967 20.167309 -0.15094891 0.98797715 -0.03339953
-6.1051073 41.301022 17.736446 0.18109576 0.98214304 -0.050982978
-6.4223118 41.839424 18.787304 -0.054456532 0.99765807 0.041387703
2.6693211 41.695808 18.186138 -0.039274607 0.9955467 -0.085698366
-1.7649765 41.64854 18.309896 -0.040444169 0.99806923 0.047139268
8.4620886 42.009998 17.646946 -0.063679837 0.99780059 0.01841083
0.68419337 41.684322 17.365292 0.043557983 0.99017161 -0.13290176
-11.862365 41.428074 17.229279 -0.018310254 0.99629009 -0.084087491
5.9044714 41.755341 17.921061 -0.055387557 0.99844223 0.0067312294
-0.32286021 41.899132 17.297407 0.05412358 0.99267238 -0.10803823
-3.1312184 41.861458 17.356775 -0.02593923 0.99843645 0.049516149
-9.8345413 42.067787 18.067429 -0.02877485 0.99873614 0.041207395
10.277792 42.01701 17.553087 -0.032612644 0.99913722 -0.025714815
-7.4501386 41.957317 17.40749 0.057140641 0.99515057 0.080063894
5.0114875 41.862686 15.85008 -0.12063699 0.98961478 -0.078161582
1.6805549 41.017696 14.88157 -0.041111168 0.99909347 -0.011054586
-6.6088142 41.705223 15.922083 0.0076848008 0.99939919 0.033795096
-9.2633638 41.6539 14.903225 -0.064197704 0.99788058 0.010625893
-10.882061 41.140984 15.189382 0.048269313 0.98753601 0.14980891
7.1286669 41.989742 14.938134 -0.059272431 0.99480927 -0.082711279
-4.7105474 41.871674 15.787735 0.036554541 0.99901783 -0.025041061
-2.5255094 41.557865 15.929503 0.10384844 0.95426059 -0.280361
12.193704 42.135784 16.702185 -0.012409047 0.99899966 -0.042962085
4.0037293 41.36903 14.56825 -0.077565677 0.9963243 0.03635367
-1.5022615 41.136681 13.338825 0.047170699 0.95718998 0.28559095
8.4057512 41.962284 14.288309 -0.07718043 0.99399191 -0.0776098
-6.5835714 41.926872 14.008731 0.078427657 0.99616218 -0.038858835
-12.20165 41.802197 14.872393 0.10348132 0.9845497 0.14125679
10.504113 41.99757 15.256505 -0.038890511 0.99916005 -0.01290994
0.42583546 41.574078 13.643439 -0.084198207 0.9814083 0.1724775
-4.235333 41.334042 14.185148 0.14593264 0.98871499 -0.033857826
3.8182945 41.868465 13.145846 -0.02765036 0.99173814 0.12526302
-6.155045 41.415234 12.514185 0.042922679 0.99884599 -0.021548452
-8.6803379 42.040283 11.976192 0.017785652 0.99901181 -0.040732
-10.500405 41.626862 12.593939 -0.027649952 0.99940431 -0.020653389
-10.728533 42.168186 13.849508 0.026323289 0.9980188 -0.0571463
-12.82353 41.583233 12.029154 0.044245716 0.99760056 -0.053248487
-13.438397 41.949604 13.788907 0.15432683 0.98506105 -0.07640624
-17.79987 41.977707 12.149216 0.16382472 0.98539191 -0.046521541
11.723872 42.043861 13.769954 -0.024280261 0.9996987 0.0036194853
-3.9448421 41.954014 12.934616 -0.0090047009 0.99214309 0.12478378
5.8099117 41.974716 11.581734 -0.056307234 0.9967128 0.058249429
0.88131791 41.5499 12.157788 -0.0014927993 0.99328667 -0.11566921
-15.896936 42.204659 12.597287 0.063160487 0.99597347 -0.06362012
2.7874367 41.487984 11.05273 -0.10945471 0.99086261 -0.078810185
-11.43816 41.782959 10.302789 0.027438192 0.99908513 0.032803465
12.848058 42.085625 12.282751 0.0098333219 0.99990207 -0.0099619729
8.792985 41.432011 10.100413 -0.0089203045 0.99482822 -0.10117886
-2.3100586 41.723999 11.432837 0.085987426 0.99605125 0.022092789
-16.056736 41.968552 10.779614 0.1308817 0.99123198 -0.018147295
14.314553 42.099415 10.038487 -0.041973162 0.98549026 -0.16446018
9.0270061 41.744385 11.241795 -0.088633463 0.995399 -0.036401302
7.6014462 41.965607 10.413033 0.12320387 0.99231023 -0.011884407
10.769722 42.123596 11.191094 -0.15501922 0.98715258 -0.038716931
-6.4389706 41.652588 10.123938 -0.095343113 0.99043 0.099790663
-8.3567314 41.593746 10.27316 0.048263431 0.99857295 -0.022864951
-13.36623 42.015881 10.411784 -0.078777254 0.98874801 0.12716657
-14.901387 41.620014 9.4243174 0.019237667 0.99442506 0.10367583
5.4512887 42.008476 9.4935408 -0.021942498 0.99444038 -0.10298956
3.011821 41.554722 9.2382336 -0.16394699 0.9864313 -0.0086408677
-0.20269763 41.163597 9.7459002 0.067037344 0.98849916 -0.13555619
-6.1123457 41.978264 9.0803938 -0.055668399 0.99813032 0.025236206
3.8021708 41.629711 7.9791703 -0.11851298 0.98625284 -0.11515164
13.767849 41.447929 8.5568466 -0.039592952 0.9958787 0.081596881
-0.070583202 40.604889 7.2614412 0.14633305 0.98916775 0.011567402
-2.1489487 41.787563 9.4587917 0.22820708 0.97361261 6.0951257e-05
-8.4883871 41.583866 7.7969017 0.00223657 0.99771827 -0.06747818
-12.75202 41.717113 6.9712005 0.010430349 0.99822855 -0.058575291
-13.322952 41.99575 8.5123568 0.019678578 0.99979532 0.0046952451
-15.739005 42.129971 8.5494394 0.069565609 0.99700421 -0.03381332
-16.820192 41.947243 7.6633506 0.030101022 0.98131382 -0.19004534
9.8839531 41.570507 8.1384277 -0.18300979 0.98308885 0.0066094832
5.7780714 41.643211 8.3875933 0.026412869 0.98064095 -0.19402513
-3.1728156 41.868954 7.2965026 0.042136155 0.99660051 -0.07079529
-4.6155467 41.784168 9.2399864 0.008276986 0.99996573 -0.00017630684
15.153296 42.336967 7.8235083 -0.018150654 0.99981713 0.00601485
11.512416 42.101257 8.8355675 0.013906373 0.99952859 -0.027372759
4.7790322 41.348701 6.5698137 -0.080163591 0.99624968 0.032563239
1.2533774 41.189804 8.4302282 -0.18697017 0.97656572 -0.10659027
-8.8858566 41.156315 5.7412605 0.03227134 0.99733353 -0.065455548
9.6899595 41.752964 6.0746422 0.0056521446 0.99064475 0.13634871
-0.71483743 41.339226 6.6159515 0.21080089 0.97049636 0.11704614
-6.5439553 41.765915 6.7334657 -0.064538144 0.99198532 -0.10862769
2.2430768 41.072224 5.9893746 -0.096032321 0.96424061 0.24701779
0.134104 41.604023 4.8915734 -0.034184709 0.97307336 0.22794637
-14.0945 42.063114 5.3329396 -0.090066656 0.9934628 0.070139609
-17.764284 41.74575 6.0062094 0.18336104 0.98304558 -0.00038313487
7.2904067 41.498383 7.243197 -0.0090401256 0.99599057 0.089000709
4.7692013 41.884945 5.3374152 -0.024769744 0.97159612 0.23534532
2.6038446 42.140007 5.5678954 -0.085176639 0.97759545 0.19248906
-6.4790664 41.423965 4.9288001 -0.040645022 0.9882493 -0.14734742
-10.706252 41.865818 7.8905578 0.054400939 0.99850619 0.0050851395
-11.353577 41.919254 4.6882467 0.0020451352 0.9995054 -0.031382252
-12.577255 41.787247 6.0558848 0.034570582 0.99939078 0.0047774604
12.718634 42.169312 6.9401779 0.049055759 0.99692893 0.061042566
-2.0508554 41.491825 5.0600009 0.0017843216 0.99713922 0.075565733
-9.9716291 41.755981 5.7666292 0.22903091 0.97341883 0.00084094296
12.395432 42.221569 5.3254952 0.032237031 0.99865657 -0.040568639
8.2439194 42.278576 5.6822238 0.015128892 0.99857378 0.051200923
-3.4870081 41.651978 5.5199585 -0.005102477 0.99822915 -0.059266858
-5.8145623 41.135223 4.2526264 -0.095909745 0.98647153 0.13294841
11.351357 42.03006 6.7776608 -0.17982818 0.9833954 0.02439818
-12.697351 41.724667 2.4365032 0.078472883 0.99677289 -0.016905801
-16.329735 42.133183 4.2495384 -0.0148458 0.99968725 0.020124655
-17.486202 41.97089 4.3830171 0.15760247 0.98463839 0.075159334
-8.0989323 41.397732 3.464211 0.088900812 0.99269295 0.081592128
-15.489629 41.749786 2.5043395 -0.0094189225 0.99884582 -0.047098465
9.816452 41.831032 3.2682438 -0.053275261 0.99815196 -0.029230054
1.2989634 41.561432 4.0028243 0.0051582428 0.9987095 -0.050524279
-1.0957277 41.945015 3.3474 -0.044678997 0.99712443 0.061210588
-4.3593073 41.811852 3.1593602 0.0061752964 0.99864215 0.05172782
-10.013954 41.779663 3.3495488 0.10699182 0.99395454 0.024640452
15.361315 41.770882 3.8323441 -0.10867581 0.98984706 0.091610476
3.1600881 41.710365 3.6687565 -0.026972467 0.99485606 -0.09764158
14.472272 42.258438 2.9873214 -0.040463626 0.98644882 0.1590014
6.703619 41.817902 2.8420675 -0.0090674413 0.99350238 -0.11344903
6.7297773 41.937916 4.7440338 -0.091681391 0.99561936 0.018348949
4.862659 41.642979 2.3198614 -0.042317446 0.99873072 -0.027314525
-6.374289 41.783352 2.7467759 -0.11152027 0.98420262 0.13750766
-14.176637 41.990891 2.8502419 -0.006034154 0.99792701 -0.064072229
-17.072802 41.497765 2.6552005 0.099394418 0.99444669 0.034589846
10.360081 42.186844 1.1284463 -0.094137534 0.99503523 0.032295175
-0.24171382 41.770069 2.0731826 0.081456706 0.99647522 0.020047896
-8.0747604 41.39814 1.496363 0.044110283 0.99900079 0.007191529
-13.62756 41.967987 0.77013582 -0.06135691 0.99701041 -0.046962626
13.895851 42.125099 1.1302739 -0.073082544 0.9965241 -0.039982148
7.9105682 41.497738 1.4642873 -0.065601297 0.99714094 0.037501726
5.6030512 41.79578 0.75105655 -0.022531554 0.99929464 0.030043935
1.8403555 41.534176 -0.19743624 0.027929813 0.99959075 0.0061922939
1.7217641 41.63871 1.7541785 0.0377132 0.99927872 -0.004444221
-3.5917573 41.552505 1.674421 -0.030822517 0.99944121 -0.012929773
-6.1148338 41.734394 0.79139316 -0.044890184 0.99288219 -0.11031754
-9.4501505 42.017181 1.5485904 0.084074333 0.99577659 0.03688683
-15.707134 42.046597 0.72145617 0.15681733 0.98594224 0.057674218
11.878026 42.026669 2.7875977 -0.007057705 0.99964082 0.025853066
-11.707159 41.598034 1.6848929 -0.0038508391 0.99987525 -0.015317149
-14.972468 41.28323 0.3449086 0.025739644 0.99966866 8.7354172e-05
16.278 42.387527 2.6662037 -0.081984237 0.99534261 0.050711542
-7.2756777 41.223511 -0.43760747 0.11250751 0.99118567 0.069950156
12.385392 41.969288 0.31790641 -0.0046479851 0.99931586 -0.036690518
0.22255835 41.877163 0.24640597 0.006749168 0.99991798 0.010886288
-1.556115 41.809258 0.57617265 -0.066228338 0.99777567 -0.0075809499
-15.896006 42.050194 -1.4950502 0.1236636 0.99157649 0.038514122
-16.851894 41.62624 -0.081477307 0.11431845 0.99279636 0.03587034
17.6231 42.373432 1.9857634 -0.05016293 0.99837434 -0.027062932
15.198195 42.129406 -0.25857952 -0.066148497 0.9970355 -0.039299604
9.4373322 42.004528 -0.62984675 -0.047751609 0.99798954 0.041673951
-3.316572 41.619209 -1.6876925 -0.071781114 0.99726409 0.017662214
-5.5992184 41.483994 -0.87170005 -0.044604689 0.99804574 -0.043763828
-10.683965 41.729641 -0.68813956 -0.045513734 0.99895543 0.0040668501
18.507374 42.36338 -0.23265971 -0.02857032 0.99954683 -0.0094785877
5.054039 41.663437 -2.1305778 -0.067955524 0.99544662 0.066844173
-4.8170438 41.170864 -1.7786088 -0.012676521 0.97653568 0.21498242
-8.418313 41.793743 -0.99091828 0.055587042 0.99796587 0.031211788
3.7686229 41.799171 -0.84149182 -0.07639505 0.99524331 -0.060452554
-13.721804 41.782337 -1.6105679 0.026022267 0.99888563 0.03937472
17.218412 42.36306 -0.7139402 -0.095306411 0.99542987 -0.0060151373
13.613412 42.056496 -1.5926156 -0.0096041784 0.99983567 0.015375481
-11.701061 41.796001 -2.4963799 0.028533254 0.99790251 -0.058107737
11.581747 41.927166 -1.5439194 -0.0079685384 0.99761528 0.068558343
-5.9951024 41.720901 -2.3075595 0.099040776 0.96837997 0.22897825
-9.0633507 41.837124 -3.4645345 -0.0011647801 0.9999578 -0.0091076056
-13.492566 41.805798 -3.6646059 0.066084124 0.99377841 -0.089651838
-15.561306 41.957516 -3.5514779 0.085871235 0.99630624 4.0287996e-05
15.963963 42.099636 -2.0408368 -0.10544679 0.99430227 0.015614768
12.904893 42.458214 -1.944396 0.0092691258 0.99992621 0.007846457
8.3159504 42.158058 -2.3925073 -0.036596294 0.99533451 0.089274697
6.8987384 41.717262 -1.7141584 -0.10081933 0.99201298 0.075799882
0.04018775 41.968609 -1.774079 0.059220601 0.9979459 0.024432214
2.872014 41.405819 -2.2176948 0.031196008 0.99340844 0.11030167
-6.8521352 41.821365 -3.445087 -0.058765933 0.99816465 -0.014623496
-4.5643034 42.112091 -3.6637447 -0.014819037 0.99547708 0.093838394
-11.116932 41.58783 -3.7789633 -0.071306542 0.99505168 0.069192007
13.816853 41.920822 -3.3758423 0.0076322868 0.99651498 0.083064526
-0.89798224 41.768799 -3.7063127 -0.011839009 0.9954865 0.094162293
-2.3482716 41.65181 -2.9408143 -0.033350106 0.99713647 0.067872882
-8.9867783 41.463848 -5.1518335 0.07838206 0.99692321 0.00064061931
11.676767 42.09021 -3.6012647 -0.020182507 0.99031854 0.13733803
5.8024693 42.127861 -3.9696071 -0.046738397 0.99587512 0.077770427
-11.161591 42.103699 -4.8293619 -0.0042825653 0.99349296 0.11381252
-12.112318 41.669426 -6.0914302 0.054211576 0.99365842 0.098508835
-13.126307 41.477379 -4.5520377 0.05145308 0.99524277 0.082731098
2.0142047 42.297077 -4.7198281 -0.014432088 0.99324375 0.11514597
0.50117493 42.001144 -4.611218 -0.00044704997 0.99812686 0.06117554
-7.3244376 41.678722 -6.2379103 -0.038396601 0.99726212 0.063198544
-9.067729 41.924427 -6.0240865 0.084607065 0.98153937 0.17152898
-13.469833 41.911488 -5.9158168 0.036861602 0.98762923 0.15241314
-19.482367 42.131874 -4.2526746 0.065838486 0.99782884 0.0017131957
7.6509533 42.077312 -4.1691346 -0.049698412 0.9987278 0.0085373046
3.981107 42.09626 -4.9955158 -0.023913901 0.99570423 0.08944875
-4.9432664 41.806553 -5.4703698 -0.07145898 0.99688327 -0.033426329
9.6872711 42.408684 -6.8258119 -0.098065726 0.98628837 -0.13273387
5.8081245 42.068592 -6.5252738 0.01872712 0.9991039 -0.037956487
4.0224786 42.066257 -7.3554368 0.018987563 0.99980915 0.0045941207
-10.985434 41.964882 -6.0453243 -0.083341219 0.99650592 -0.0054990691
11.319657 42.593491 -5.4716291 -0.038371928 0.99544746 0.087247275
8.7267027 42.281837 -4.9594717 -0.052536856 0.99743336 0.048647206
-2.3082283 42.057629 -5.661356 -0.016916147 0.9998008 0.010589842
-12.880462 42.345886 -7.0856552 0.037091751 0.99265969 0.11511251
-18.515593 42.496304 -5.946456 0.11457463 0.98810714 0.10255212
-5.4813747 41.921875 -7.3760948 -0.0071166269 0.99845839 0.055046733
-8.2605753 42.114311 -7.3423471 0.044757791 0.99200195 0.11802053
1.0445806 41.892933 -6.6485629 -0.029284138 0.99933177 0.021874266
-10.991708 42.100311 -8.0178766 0.0063394988 0.99424565 0.10693605
-0.99225849 42.218079 -10.066516 0.017120605 0.99813217 0.058642395
-1.6320182 42.026237 -7.2233081 -0.0069614742 0.99985617 0.015464415
-3.8185751 41.86314 -8.5684443 -0.016372204 0.99613959 0.086243339
8.7200623 41.533333 -8.6632557 -0.10992859 0.9927873 0.047845628
2.7867887 42.205177 -8.3319426 -0.0060654609 0.99997783 0.0027336329
12.319173 42.41872 -6.7117438 -0.0097228726 0.99975038 -0.020116795
-6.0694156 41.967445 -8.8828783 0.02576077 0.99509245 0.095537759
-8.3634691 42.247066 -9.3588867 0.077744976 0.99507201 0.061541859
2.9291291 41.865574 -10.042126 -0.11774304 0.99274176 0.024500608
1.480122 42.10305 -9.7566395 0.087642662 0.95547241 -0.28176445
-4.3749704 42.355175 -10.173746 -0.030348923 0.98568147 0.16586462
-9.900322 42.305553 -9.5102262 0.022930156 0.99672353 0.077565297
10.205223 41.699451 -10.226334 0.044337112 0.98432702 0.17068854
-4.1275988 42.536957 -12.364061 0.024793193 0.99788135 0.060150634
-5.9338913 42.253521 -11.019407 -0.036164355 0.98000252 0.19567111
-5.7168231 42.833103 -11.914045 0.18984598 0.98150742 0.024527967
-2.9100244 42.441917 -11.135623 0.018909665 0.99078029 0.13415183
-1.104224 42.51421 -12.076407 0.13486567 0.98970288 0.047950961
-11.895839 43.841637 -12.812312 0.54667693 0.16928764 0.8200525
-10.969634 42.622986 -13.178182 0.373862 0.83679873 0.39999375
0.22382742 42.156361 -13.338327 -0.0062304842 0.98761916 0.15674704
-35.959061 -29.746531 9.1650572 -0.98631674 0.10721881 0.12523314
7.2695217 42.616852 23.587309 -0.51867044 0.83599752 -0.1791344
6.511065 41.76535 21.809515 -0.18689826 0.98237783 -0.001669044
4.1217599 41.708881 21.670584 0.0091521796 0.99824852 0.058447424
12.030946 42.324314 19.528179 -0.0079522859 0.99744463 -0.070999436
15.418727 42.166519 13.93472 -0.057314366 0.99831867 0.0086516021
16.216898 42.230049 12.618481 -0.075322084 0.99665356 -0.031751879
13.604701 41.94305 10.40177 0.009591491 0.99706358 -0.075976081
16.616234 42.717758 -7.693687 -0.46866709 0.84277701 0.2647225
15.185171 43.81831 -9.1054697 -0.7478888 -0.33316177 0.57416517
11.898438 43.276333 -12.600011 -0.4343009 0.80101085 0.41202477
8.5412521 43.692879 -14.500829 -0.47492614 -0.31970814 0.81989741
5.9387889 44.030193 -15.404655 -0.3195096 -0.28529111 0.90361637
3.3561599 42.798214 -16.240465 0.014486935 0.9959023 0.089268066
16.044247 42.027893 10.287555 -0.0051731309 0.99986339 -0.015696023
14.306061 42.182049 18.882082 -0.0087243086 0.99829221 -0.057762489
13.717123 42.103683 17.616669 0.0043093846 0.99847776 -0.054988563
14.014247 41.998348 15.35499 -0.013120046 0.99991167 -0.0021109683
19.648682 42.22208 11.334618 -0.31353402 0.93738115 0.15170017
18.861847 42.413029 10.225953 -0.25929677 0.96513891 0.035665866
17.707525 41.889114 10.975334 -0.15310222 0.98726368 0.043245081
17.706699 41.822018 8.0420065 -0.071030587 0.99687493 0.034571007
-2.1144612 41.032375 20.912029 -0.070545174 0.99313784 -0.093277864
5.6699924 41.370663 13.720052 -0.031292085 0.99934036 0.018431984
-35.221523 -22.932362 8.4813566 -0.98906475 0.097922802 0.11028168
34.490738 -38.245098 17.594604 -0.98480237 0.1649151 -0.054474205
-36.349621 -35.983932 -3.6476736 -0.9735108 0.077141978 -0.21523431
35.354538 -22.541306 0.82975692 -0.96059841 -0.26124778 0.094870359
36.335018 -38.694256 -3.392868 -0.97616071 0.00089957193 0.21704739
34.430222 -20.63217 -2.8605278 -0.95747966 -0.19860248 0.20926006
35.356213 -23.270079 -1.1601342 -0.96959478 -0.2062802 0.13166016
-36.287418 -34.65192 -2.7351236 -0.98127413 0.09582822 -0.16708693
33.413273 -19.726625 -6.1384563 -0.94054741 -0.11824004 0.31841785
35.816021 -38.606823 -5.3955798 -0.96520269 -0.030661674 0.25969908
34.572483 -23.10689 -3.9761102 -0.94619447 -0.16077101 0.28083587
33.436462 -22.002665 -6.6105537 -0.92875987 -0.20668176 0.30771375
34.99971 -38.572754 -8.3689375 -0.95302743 -0.087936625 0.28983751
34.407261 -39.29398 -10.751754 -0.89749384 -0.26270217 0.35424912
-28.287992 -29.348434 -18.863688 -0.78706557 0.11192859 -0.60662991
34.150204 -39.452267 -12.777068 -0.63091916 -0.65822995 0.41069961
32.421162 -38.707123 -12.862253 -0.83530802 -0.071365014 0.54513079
33.252575 -38.299389 -12.308289 -0.83035934 -0.24393791 0.50099665
32.291218 -39.246357 -14.190472 -0.90028304 -0.15533686 0.40664595
29.307791 -19.741137 -14.272255 -0.82641017 -0.13144246 0.54751176
30.544418 -38.677284 -17.005821 -0.81018513 -0.13403137 0.57064492
32.27227 -20.671711 -9.2831154 -0.90002811 -0.20972538 0.38205326
-16.157738 -30.667885 37.38834 -0.4961319 0.10328048 0.86208254
31.237736 -20.968563 -11.466394 -0.85230076 -0.17517093 0.49284738
-17.276617 -30.025099 36.582649 -0.50577122 0.081718579 0.85878837
28.521582 -22.254498 -15.816644 -0.80975127 -0.18164869 0.55794859
29.871092 -21.555443 -13.857577 -0.81739712 -0.1387471 0.55911648
30.199635 -34.970398 -16.600292 -0.80718648 -0.10072447 0.58163959
29.233967 -24.968163 -15.979568 -0.80415362 -0.1521354 0.57462311
28.424305 -30.136385 -17.981386 -0.78564763 -0.13147639 0.60454267
26.790514 -23.823328 -18.99353 -0.76486337 -0.17042875 0.62123913
28.843771 -36.329067 -18.572166 -0.77030313 -0.10845699 0.62838691
28.353447 -39.071659 -19.779711 -0.76079875 -0.14715958 0.63208336
28.909374 -32.690094 -18.05261 -0.7896139 -0.12213531 0.60132593
25.804758 -23.054272 -19.462612 -0.69244456 -0.22571662 0.68525356
25.774252 -25.921507 -20.448608 -0.6963923 -0.096309997 0.7111696
27.240652 -33.434639 -20.125046 -0.73803067 -0.10199303 0.66701436
27.365484 -20.281782 -17.146265 -0.77013606 -0.15406448 0.61899489
27.146782 -27.448627 -19.056795 -0.75714058 -0.10495887 0.6447649
25.567131 -36.790642 -22.161917 -0.70418423 -0.11802981 0.70013827
26.352789 -38.671791 -22.093683 -0.69394433 -0.21171339 0.68819958
24.468384 -21.04822 -20.425932 -0.68800092 -0.19576189 0.69880748
23.977699 -25.843113 -21.945251 -0.65668887 -0.12520942 0.74369496
25.033134 -27.749989 -21.274082 -0.69148803 -0.12344037 0.71176326
24.648064 -23.846464 -21.066378 -0.67705232 -0.18748465 0.7116527
24.583227 -39.191284 -23.688625 -0.62489295 -0.16677985 0.76268828
23.610853 -23.254934 -21.832167 -0.62163508 -0.18725441 0.76059556
25.591309 -33.767986 -21.834732 -0.7119804 -0.10904002 0.6936816
24.19659 -36.928345 -23.591522 -0.64919049 -0.068002231 0.75757998
21.345232 -21.288347 -23.104391 -0.55444777 -0.22246724 0.80193263
21.696163 -32.005527 -24.867264 -0.5805732 -0.1499555 0.80027997
22.032421 -39.208191 -25.511673 -0.59624308 -0.081647314 0.79864132
22.18932 -37.099068 -25.261459 -0.58411616 -0.067242496 0.80887991
-35.939281 -39.479546 12.533875 -0.89678639 -0.40300089 0.18265939
-36.55265 -39.196404 11.540426 -0.98388833 -0.012957683 0.1783141
19.920021 -36.646557 -26.750507 -0.51114875 -0.1341096 0.84896499
19.845505 -38.812408 -27.049131 -0.57962012 -0.077096514 0.81123155
17.224468 -37.828465 -28.302927 -0.45050704 -0.14883681 0.88027894
18.659184 -38.118477 -27.898401 -0.48984548 -0.23510329 0.83951044
15.902457 -36.51651 -28.870203 -0.38957351 -0.1359358 0.91090834
-31.554815 -8.0802069 15.111509 0.95518285 -0.039113205 -0.29342088
-31.064091 -3.1352799 13.737796 0.95019025 -0.11433305 -0.28994206
-31.852327 -3.9238386 11.291879 0.96025574 -0.1068683 -0.25785267
-31.45187 5.0187302 6.7859664 0.98952991 -0.096571483 -0.10725938
-31.203936 11.202332 3.4673793 0.99742031 -0.026610153 0.066667318
10.30913 41.971935 13.007365 -0.061837506 0.99807864 -0.0038855479
14.159626 41.623928 5.1846356 0.011884884 0.99963963 -0.024074184
6.3344011 -39.72633 41.809479 0.22758275 0.0047188597 0.97374731
4.8772874 -38.209888 42.084084 0.17904411 -0.07467223 0.98100317
10.011429 -39.900391 40.811775 0.2842831 0.0031242466 0.95873523
9.0995798 -37.656769 41.074844 0.27689996 0.013699874 0.96080112
12.105054 -39.629883 40.098057 0.31464115 -0.0068509295 0.94918603
13.293038 -38.107628 39.717716 0.3968257 -0.010336984 0.91783577
11.907278 -37.106903 40.198914 0.29061869 -0.010748276 0.95677859
14.587247 -39.491745 39.233505 0.4251132 0.064064302 0.90287018
15.103065 -36.658047 38.659969 0.43696526 0.0030065002 0.89947337
17.38088 -36.604374 37.951214 0.48941427 0.024742583 0.87170029
16.389818 -38.867138 38.193558 0.42917672 0.020823233 0.90298045
16.820049 -35.377636 37.997753 0.43324205 0.015753973 0.90113991
19.274857 -39.521969 36.926418 0.45051426 0.041562695 0.89180124
18.085583 -37.81591 37.254368 0.45764655 0.053204291 0.88754094
15.189908 -25.647303 37.816719 0.36872867 0.12888344 0.92055875
22.117733 -39.157486 35.16954 0.57047117 0.054962222 0.81947654
19.491825 -37.163746 36.792164 0.47520661 0.12499997 0.87094986
18.626642 -35.379875 36.57682 0.52963376 0.0068350188 0.84819883
21.414371 -36.994759 35.391926 0.53005093 0.14393592 0.83566052
21.20051 -34.819626 35.258034 0.53894532 0.029134659 0.84183681
24.338814 -39.582687 33.453693 0.62873191 0.012125766 0.77752757
23.278238 -35.886742 34.017532 0.58570337 0.081821829 0.80638498
24.587091 -37.48159 33.220161 0.63858795 0.062401433 0.76701462
23.314011 -33.107327 33.821667 0.60707879 0.091997437 0.7892983
22.155573 -30.314745 34.10508 0.58452833 0.090127036 0.80635214
22.495792 -27.862682 33.737522 0.59871835 0.11761696 0.7922768
18.687603 -19.974068 35.110073 0.46826509 0.14222589 0.87206626
20.757792 -26.048401 34.609726 0.59810758 0.11358803 0.79332536
22.16737 -24.265625 33.290222 0.61627871 0.12501559 0.77754205
25.082443 -35.466595 32.418976 0.65194583 0.10707998 0.7506668
24.007656 -26.320623 32.127556 0.66961986 0.14202355 0.72899836
26.756374 -39.665966 31.426527 0.66938341 0.048281845 0.7413466
26.474705 -36.394077 31.480738 0.6972428 0.11310292 0.70785606
24.272598 -30.478666 32.558319 0.64262831 0.074580468 0.76253951
19.812576 -18.022848 34.117859 0.53195614 0.13710144 0.83559912
24.897501 -32.898972 32.274551 0.67932856 0.089950591 0.72830051
19.646109 -15.942804 33.848885 0.53703195 0.070371225 0.84062159
19.896523 -10.516366 33.02784 0.56715894 0.11186665 0.81597584
23.274429 -22.292444 32.126202 0.62682426 0.12414993 0.76920623
16.29364 -2.8300011 34.195259 0.46563876 0.096025951 0.87974972
16.74362 -4.5895891 34.13435 0.47030878 0.14694493 0.87018216
27.846708 -38.014362 30.245443 0.70114529 0.097701527 0.70629293
27.713486 -35.611607 29.78038 0.72902143 0.12326485 0.67330062
26.577406 -33.508846 30.827297 0.70834732 0.097236075 0.69913453
26.516077 -26.971769 29.855822 0.70770311 0.13394561 0.69369656
28.900621 -39.223129 29.335016 0.74514318 0.081696421 0.66188169
25.776121 -28.860712 31.009073 0.70777977 0.11377718 0.69721055
21.743317 -16.573374 32.55526 0.59965903 0.10143343 0.79380119
-36.845509 -38.855946 9.1225624 -0.980156 -0.04605414 0.19280346
27.139639 -29.879984 29.665688 0.73881304 0.097894289 0.66676229
26.245607 -24.448973 29.651695 0.71248764 0.090720862 0.69579518
23.45644 -18.652208 31.411581 0.65085739 0.1173331 0.75007844
22.518173 -15.349215 31.699505 0.65469152 0.10388581 0.74872339
30.664568 -39.415833 27.126146 0.79016131 0.042253599 0.61144072
30.905048 -37.009335 26.659601 0.78058988 0.11735485 0.61392772
23.56831 -12.881358 30.558376 0.66161078 0.10595741 0.74232352
29.453526 -35.997856 28.192274 0.75354058 0.13559784 0.64326501
29.484907 -29.282867 26.879412 0.7685656 0.087522909 0.63375592
28.32679 -28.444702 28.241783 0.75684756 0.12133572 0.64223003
25.26158 -21.438799 30.248318 0.67521369 0.11750721 0.72820228
23.16361 -8.8866558 30.277845 0.64931506 0.11330082 0.75203252
20.798368 -6.8356133 31.928709 0.60345459 0.13210638 0.78637809
27.776936 -25.781477 28.25666 0.75209677 0.10941121 0.64990735
25.252375 -18.081196 29.697466 0.69527173 0.12196303 0.70832354
24.551981 -14.996924 29.913578 0.68724829 0.099993207 0.71950763
20.027573 -2.9066572 31.815971 0.58791327 0.10418402 0.80218679
31.396423 -35.564819 25.353376 0.78390455 0.16439907 0.59872079
28.846184 -32.735519 28.210007 0.75931203 0.11249005 0.64093006
27.054167 -21.300409 28.558542 0.71349072 0.1173665 0.6907649
20.744349 -0.6176095 31.0254 0.60570264 0.1131763 0.78760105
28.992918 -27.363459 26.933794 0.75506413 0.13634591 0.64131725
24.360651 -10.315647 29.378775 0.71613884 0.12083943 0.68741769
23.315268 -5.9536171 29.689543 0.66656202 0.12789677 0.7343961
33.120964 -38.854523 23.88459 0.85843289 0.093735054 0.50428838
28.222616 -23.315063 27.427113 0.76144826 0.081458062 0.64308721
32.22073 -37.214451 24.933521 0.79476404 0.11477686 0.59596682
27.894432 -20.016693 27.413666 0.76068568 0.14468382 0.63279063
26.134111 -15.305058 28.323736 0.71299833 0.10277202 0.69359308
22.917078 -0.051431213 29.131632 0.66111761 0.13194032 0.73859006
17.753826 15.939231 30.625267 0.55337697 0.14905024 0.81948638
30.471678 -31.895252 25.841572 0.79303509 0.089017868 0.60263687
29.259932 -21.730217 25.82263 0.78218007 0.10517871 0.61411053
26.603594 -17.918852 28.027826 0.72811258 0.11308774 0.67606455
22.446793 -2.8499568 29.899456 0.65837562 0.11515002 0.74382937
20.423508 1.465301 30.883101 0.60213357 0.14959645 0.78425515
29.796583 -25.617399 25.808891 0.76453424 0.10093768 0.63663107
25.682411 -11.644693 28.247721 0.71146613 0.11882808 0.69260079
20.487097 3.8584206 30.28084 0.65248728 0.10142589 0.75098145
20.708572 43.045498 10.868094 0.12202725 0.96029472 0.25088534
31.560244 -33.770397 24.902813 0.79038316 0.12951384 0.59876609
28.986675 -19.145369 25.752182 0.78692049 0.14971225 0.59861702
24.175718 -2.2135031 28.104536 0.69633669 0.085942939 0.71255112
25.805477 -8.8693752 27.482546 0.73517489 0.084356859 0.67260826
24.763062 -4.6589222 27.966776 0.70423752 0.13682342 0.69665551
-29.722824 -28.956385 -16.754896 -0.82801908 0.081308275 -0.55477315
32.966759 -34.567001 23.243288 0.84246516 0.13358538 0.52192664
29.162754 -17.070908 25.107672 0.78238678 0.06120088 0.61977845
27.083496 -11.081332 26.575146 0.73395103 0.15994918 0.6601001
22.695246 2.3025036 28.682285 0.65367794 0.13698724 0.74427122
21.261044 6.118187 29.527002 0.62353712 0.11454146 0.77335751
-36.319374 -32.66914 8.7970095 -0.98867023 0.079761349 0.12715837
-36.649155 -34.806847 6.5706606 -0.98956299 0.12331822 0.074549854
24.970219 -6.5803142 28.167183 0.70778209 0.11719205 0.69664234
19.95649 10.730343 29.671448 0.61235583 0.11674348 0.78191513
31.952042 -31.536015 23.854889 0.82478893 0.13155313 0.54992449
30.292221 -22.999044 24.84729 0.80875522 0.10125405 0.579364
27.977102 -15.553436 26.287754 0.76070893 0.11344934 0.63910192
19.869797 13.509237 29.378984 0.62913632 0.094725922 0.77150142
26.889944 -7.3726621 26.399984 0.76409495 0.098606125 0.637523
34.683182 -35.940956 20.329916 0.88878173 0.11568245 0.44349137
30.971666 -19.815847 23.306011 0.81746376 0.1490538 0.55635959
25.573229 -2.7440095 26.791985 0.71636087 0.091708556 0.69167662
24.970585 2.7456763 26.491749 0.73056352 0.1160936 0.67290354
27.913738 -13.239362 26.239399 0.76707548 0.1237106 0.62951636
23.763454 3.538167 27.491575 0.69489175 0.0718747 0.71551341
23.386307 7.5971346 27.157887 0.65922815 0.15290383 0.73623282
26.842176 -4.4809456 25.758928 0.75968796 0.1188244 0.63933951
21.816538 8.7335577 28.468496 0.64938396 0.16266988 0.74285859
22.010607 14.110164 27.44087 0.67305803 0.098603301 0.73298723
19.35631 21.410494 28.454418 0.60414594 0.1266958 0.78673756
16.691462 25.745562 29.711252 0.54619879 0.12749623 0.82789588
12.34625 34.876358 30.646786 0.41763783 0.15278628 0.89567566
35.337135 -39.21999 19.813204 0.88037443 0.05473391 0.47111046
30.864216 -18.662426 22.642733 0.82669264 0.17488743 0.53478384
30.316841 -17.056938 23.476784 0.84917367 0.066729583 0.52388084
29.382439 -14.075715 24.538603 0.80980617 0.14005111 0.56973648
28.466581 -10.719417 24.903517 0.81110525 0.082036734 0.57911861
33.917755 -31.984756 20.729893 0.8762033 0.12520838 0.46539295
24.289356 8.9613953 26.330444 0.70778859 0.20373294 0.67640835
18.723778 25.588755 28.330271 0.60684681 0.12721494 0.78457206
17.537481 28.148279 28.817162 0.57716715 0.15812303 0.80117118
25.760368 4.8439407 25.353878 0.76816034 0.10996112 0.63074428
24.42758 5.8128738 26.647255 0.70835936 0.11177098 0.69694632
29.53953 -11.803627 23.077024 0.83263886 0.14912386 0.53336167
33.356972 -23.761454 19.609468 0.89604628 0.1041308 0.43157592
23.463926 15.740122 25.830618 0.74418449 0.12459052 0.65625203
35.704414 -39.763695 17.725046 0.70284051 -0.66510737 0.25228438
35.388195 -33.767262 18.034201 0.91048473 0.1282758 0.39314488
32.04208 -23.079727 22.11071 0.86543787 0.10310636 0.49029219
29.90353 -10.279007 22.883879 0.84176922 0.042969137 0.5381248
28.513939 -9.071104 24.492395 0.78477627 0.12540638 0.60695916
27.050634 -1.0733654 25.008101 0.77757013 0.12724328 0.61578721
17.016518 30.825277 28.54253 0.56126052 0.14565122 0.81472224
36.692417 -38.709816 17.750946 0.93195719 -0.012923549 0.36233798
28.404451 -5.9632111 23.838249 0.81954759 0.14568117 0.55418289
28.531586 -3.4601622 23.336494 0.82598299 0.061483659 0.56033188
27.853771 2.836391 23.307344 0.82735181 0.082779303 0.55555058
23.221355 12.036468 26.831017 0.7142998 0.061326496 0.69714767
22.10589 16.729485 27.03727 0.68143767 0.14547217 0.71727294
21.122549 19.915073 27.258303 0.67950857 0.13765457 0.7206381
36.531696 -35.170723 15.715921 0.93933684 0.17563941 0.29461342
35.786297 -36.881351 18.156897 0.88104057 0.18009657 0.43741599
34.930035 -31.285728 18.363316 0.92383122 0.11361489 0.36555076
32.356327 -19.385553 20.847935 0.88020575 0.15890589 0.4471989
23.072842 17.70446 25.622393 0.72425091 0.14001632 0.67517108
34.590092 -28.226967 18.165398 0.91445172 0.12163211 0.38598409
34.425156 -26.217953 17.979307 0.92501938 0.10583289 0.36488146
31.549419 -17.472181 21.390608 0.87156636 0.092456825 0.48148087
27.452501 1.1252495 23.759783 0.82209092 0.13177325 0.55389738
25.090206 10.388332 24.474285 0.74531716 0.10326135 0.65866482
34.504898 -23.196991 17.231091 0.93328679 0.095513634 0.34619761
32.762272 -18.336275 18.727375 0.88845205 0.14170466 0.43654633
32.346367 -16.332996 19.916687 0.89770317 0.046377666 0.43815309
29.360695 -5.0170913 21.819365 0.8570869 0.14763039 0.49356598
18.634558 32.46228 27.16046 0.61964744 0.10393656 0.77796805
26.158323 9.2166595 23.934645 0.77897859 0.20956245 0.59099573
22.791363 42.551483 10.653327 -0.02367981 0.99951744 -0.020102449
37.119221 -37.451275 15.00422 0.96859813 0.133509 0.20974503
33.788708 -19.530039 17.74626 0.90397555 0.14696993 0.40153217
31.024714 -9.8597555 20.78166 0.89629239 0.073319882 0.43736035
25.879957 11.790438 23.961782 0.80181855 0.069740131 0.59348404
24.259199 42.256149 12.151052 0.25023153 0.96533829 0.074202694
30.736095 -6.8440113 20.818518 0.85651648 0.18174338 0.48306197
32.457581 -11.905326 17.603123 0.90185702 0.13601899 0.41006452
31.135218 -11.483931 20.502934 0.88307106 0.062419679 0.46506926
29.129784 -2.9972479 22.442616 0.8491562 0.075777866 0.52267718
27.885347 7.3610196 21.684605 0.85659403 0.16093189 0.4902527
37.891716 -38.912598 12.199776 0.97260809 0.12544946 0.19569388
35.633652 -32.289303 16.911201 0.94220072 0.13698091 0.30576798
32.043209 -10.16249 18.805292 0.90750027 0.045371938 0.41759384
25.994305 14.344321 23.062992 0.79703492 0.18315241 0.57549155
37.28651 -39.136631 14.60219 0.9519217 -0.20275944 0.22963792
35.57494 -28.49151 15.617611 0.94408345 0.12131774 0.30657533
35.272621 -24.629433 14.805919 0.95694882 0.10963366 0.26875547
24.280716 23.038733 23.172558 0.77493566 0.089971833 0.6256035
36.047909 -27.500822 13.558446 0.96582448 0.12681505 0.22605547
34.953499 -22.042366 14.996392 0.96200502 0.10329322 0.25273892
30.511045 -4.8154526 19.704319 0.881419 0.11459655 0.45822284
30.590752 -3.0891426 19.64155 0.89482921 0.040147487 0.4445996
29.583555 -1.1606846 21.294817 0.85689878 0.15405186 0.49192721
22.647402 25.047466 24.972828 0.72439486 0.088724315 0.68365198
33.274288 -16.086765 17.709993 0.91587472 0.12608033 0.38115245
27.741346 9.1921835 21.588964 0.84770304 0.1581929 0.50633454
36.615223 -31.912493 13.236089 0.9664709 0.12888259 0.22208853
29.051311 2.0378292 20.859365 0.87214458 0.11838796 0.47470847
24.694042 18.794508 23.87673 0.77258772 0.11602334 0.62421703
24.806572 21.170839 22.865335 0.76556969 0.19100627 0.61434489
36.040028 -23.977928 11.778216 0.97529334 0.096743546 0.19860384
31.746628 -5.7217336 17.647081 0.89199728 0.17190467 0.41807848
30.440256 0.5854761 18.985584 0.87854397 0.19372755 0.43661216
24.369259 25.299501 22.849152 0.80716014 0.14888497 0.57124931
30.411697 3.6988232 18.16399 0.9133532 0.099336788 0.39486468
28.889637 7.9607415 19.490452 0.87987792 0.17786141 0.44065866
34.143543 -17.430103 15.475067 0.95374483 0.12084468 0.2752586
33.527931 -9.4808455 14.875288 0.9561938 0.082391098 0.2809006
32.346703 -7.7544427 17.25452 0.91405386 0.13090426 0.3838875
31.437914 0.64347547 16.732639 0.92684042 0.14266863 0.34729305
24.656591 26.689449 21.642513 0.81551939 0.16032419 0.55607927
37.297508 -35.343063 12.448885 0.97000629 0.15334696 0.18860689
36.732029 -29.091284 10.969984 0.98028809 0.11192892 0.16281028
36.414196 -27.071066 11.318362 0.97693229 0.12315019 0.1744629
34.5103 -19.741442 15.814917 0.95189404 0.15699933 0.26315194
34.148975 -14.969122 14.564454 0.95814508 0.08613196 0.27301902
33.071335 -11.603136 16.587925 0.92472368 0.11720242 0.3621459
26.648649 18.746653 21.060949 0.85743684 0.13256183 0.49722165
23.080187 30.246576 23.080482 0.77248913 0.10056282 0.62701494
24.605055 42.219658 9.2280769 0.30003116 0.95392209 0.0037309735
38.323265 -38.997448 8.5316343 0.99307722 0.073777229 0.091403559
38.150784 -38.832134 10.610554 0.98013419 0.12951647 0.15020786
32.663559 -5.811944 15.776778 0.93178642 0.14556289 0.33254397
31.030979 -1.3539035 18.383408 0.90262336 0.11528192 0.4147062
29.342773 9.5772734 18.091425 0.87676883 0.13749596 0.46083763
28.544634 13.841122 18.846853 0.87384671 0.1955294 0.44515198
31.68961 -3.1745851 17.316761 0.92477173 0.10339733 0.36620504
22.466688 36.744171 22.30019 0.80843598 0.19579169 0.55506474
37.276443 -33.189617 10.565807 0.97683197 0.15677613 0.14567317
33.998032 -13.060793 14.949193 0.94646764 0.16211092 0.27914006
29.899208 5.7088156 18.765383 0.87505615 0.14562421 0.46159548
21.929382 35.2033 23.39481 0.7290054 0.21680616 0.649266
20.063848 42.597675 8.9321289 -0.38330755 0.92242593 -0.046965476
33.081745 -3.7616031 13.331931 0.95907432 0.1345818 0.24912697
30.650539 2.1660607 17.649805 0.88910699 0.13081042 0.43860847
29.712112 12.254725 17.034069 0.91608965 0.092412956 0.39017883
28.20075 16.575371 18.338398 0.88979661 0.14877629 0.43142498
27.757536 18.800545 18.804558 0.9017567 0.098087914 0.42096728
34.895412 -18.268482 12.665327 0.9637078 0.14077625 0.22682445
34.759251 -12.946528 11.467276 0.95978868 0.18794692 0.20852238
29.40439 14.41993 16.689547 0.93016988 0.15821388 0.33128878
25.920868 25.145533 20.405369 0.86443037 0.10095154 0.49251303
21.046799 42.059269 10.86638 -0.071786731 0.99554831 0.0610765
37.366764 -32.250534 8.6163473 0.98415637 0.14494982 0.10210671
31.385763 3.1403844 15.984746 0.94288242 0.10390742 0.31650597
23.152245 32.430874 22.874166 0.78173733 0.13542317 0.60872591
38.088196 -36.475441 9.049943 0.98358262 0.13754344 0.11682114
33.786575 -11.366946 13.271703 0.96521473 0.147817 0.21566348
34.142952 -9.8405571 12.028547 0.97764456 0.031791303 0.20784718
26.20216 41.147003 9.8924885 0.38524994 0.92229885 -0.030777518
38.349701 -36.933422 5.8225303 0.98572665 0.16609682 0.027472913
37.07724 -30.637743 9.6905928 0.98687786 0.10539789 0.12232497
35.086201 -16.120869 11.90659 0.97280717 0.07528872 0.21903862
34.315723 -11.33644 10.798896 0.97582245 0.13641597 0.17076665
30.062181 11.379843 15.378016 0.93953389 0.16332397 0.30100068
38.61832 -38.888924 5.5767179 0.99296194 0.10630454 0.052209549
37.906658 -34.526367 7.2164969 0.98356193 0.17202663 0.054888308
36.637276 -26.67185 9.0131769 0.98504841 0.12078477 0.12284365
35.613178 -19.731167 11.511214 0.96463758 0.14789951 0.21817438
36.391712 -24.507687 9.0408421 0.98797894 0.074365646 0.1355263
37.128963 -28.967125 7.8603907 0.98778206 0.11770246 0.10214039
36.302467 -22.428741 9.1256428 0.9901312 0.086306393 0.11041424
35.998486 -19.750551 9.2705688 0.98135471 0.16225445 0.10303602
35.382526 -17.282658 9.8856936 0.97912669 0.11063394 0.17050226
36.79591 -26.023127 7.3901143 0.98928648 0.12454399 0.076164775
35.191998 -13.867213 9.6484375 0.97476232 0.16857477 0.14635879
32.512745 -1.6321532 14.247557 0.9481461 0.08155258 0.30719391
-37.330593 -38.473305 7.7583179 -0.98132378 0.17835385 0.072065607
34.643398 -9.9041653 9.7181988 0.98774844 0.076662891 0.13592541
33.742977 -5.4223428 10.545218 0.98144192 0.12889419 0.14197892
31.9807 1.4181446 14.074963 0.95210612 0.16297764 0.2587128
31.980131 4.1955466 13.38155 0.96178579 0.12471016 0.24375293
30.840017 7.8353486 14.755328 0.95480889 0.12092692 0.27150813
24.062742 38.789375 19.552774 0.77795053 0.011376422 0.62822264
38.418194 -37.100342 3.8694992 0.98417038 0.1771998 -0.0029821103
37.627552 -32.339333 4.578886 0.9942984 0.10663007 -0.00092448486
33.686646 -6.3253827 12.652072 0.97036445 0.14662258 0.19207992
32.854805 0.25320539 13.228713 0.95285475 0.17540771 0.24758817
31.531101 5.9381547 14.350301 0.9448176 0.17026326 0.27987516
35.892883 -18.854464 7.3688421 0.9888438 0.13938504 0.052532963
37.942493 -35.277275 4.8221331 0.98661047 0.16309254 0.00072617957
32.721458 0.647008 11.855156 0.96661288 0.18499357 0.17730443
30.869057 10.722656 14.468678 0.94138896 0.15545382 0.29936749
25.927736 41.527996 7.0373912 0.47782287 0.87706727 0.049378812
37.038906 -27.236206 5.7971196 0.98994416 0.13520758 0.041588344
34.872097 -10.909242 7.1016936 0.98712879 0.13899226 0.07910683
33.376526 -2.176465 11.215962 0.97681212 0.12589833 0.1731696
32.006695 6.1078458 11.391744 0.96451658 0.15886304 0.21087998
-19.05097 -28.913372 35.51746 -0.51181304 0.10021455 0.85323167
36.440826 -21.715332 6.8443494 0.99213493 0.11658764 0.045559458
31.160635 11.215362 12.148792 0.97281855 0.13183944 0.19037436
38.565163 -38.463078 1.7902116 0.98800033 0.14285666 -0.058712766
38.113094 -35.853409 1.8678955 0.98290074 0.18068357 -0.035492059
37.3423 -30.633537 2.1436534 0.99359345 0.10580597 -0.039713454
35.73819 -15.99153 8.1286688 0.99246073 0.079072475 0.09364409
33.881252 -3.7416894 9.5341616 0.98522013 0.10238253 0.13732859
32.549595 4.7308416 10.699857 0.96932364 0.16881321 0.17864423
36.929562 -26.091602 4.3181424 0.98810852 0.15198915 0.023256337
35.654015 -17.057297 6.6228266 0.99765956 0.068371452 0.0008854242
35.692665 -15.361093 5.4598393 0.99308759 0.11504845 -0.023254983
33.216614 0.24713849 9.9350004 0.9816466 0.13198003 0.13766308
-30.731779 -34.127872 24.666983 -0.8488273 0.091893703 0.52062243
35.955212 -18.827536 5.323297 0.98565465 0.16869833 0.0050707562
35.415466 -13.529681 7.0225019 0.98299748 0.17949072 0.038718905
32.626797 2.7531905 11.671189 0.97322994 0.10101564 0.20644426
30.254332 17.902893 12.814587 0.95264643 0.13075875 0.27453038
36.579185 -22.230556 4.1973252 0.99362171 0.11273076 -0.0027788277
34.07999 -5.1880145 8.0790319 0.99008316 0.10222275 0.096363328
33.548523 -1.7414398 8.8227921 0.98409766 0.14459094 0.10317547
33.28772 0.92977434 8.0466862 0.98646045 0.14418748 0.078139246
36.836697 -25.450132 2.7158551 0.99305409 0.11572326 -0.021252057
-36.870327 -37.061684 6.2919579 -0.97887671 0.20331958 0.02148482
31.065029 15.000828 10.060039 0.97673535 0.15564202 0.14752522
38.084328 -36.31675 0.013809218 0.97844076 0.175639 -0.10864895
36.486095 -23.143858 2.1831801 0.98618436 0.13608384 -0.094454661
33.025135 3.0016127 8.9321899 0.9889828 0.095754534 0.11288995
32.769161 5.4326901 7.8537979 0.98542166 0.15288261 0.07463932
34.019901 -3.1555986 6.4850607 0.99147546 0.12054122 0.049458761
33.332138 2.8775959 6.6129947 0.99650818 0.070074268 0.045399092
30.691372 18.593706 10.910497 0.96558535 0.17627609 0.19123761
30.006012 22.762386 10.595951 0.97004777 0.08437036 0.22779173
28.936728 25.431503 13.514521 0.93974572 0.1153663 0.32182062
36.185936 -20.555084 2.886524 0.98718125 0.1458752 -0.064758897
35.854187 -18.139017 2.9490378 0.9924404 0.1153267 -0.041972861
34.697384 -8.6362963 5.0231028 0.99252683 0.12162788 0.0098536676
29.287209 26.352152 12.210912 0.94489014 0.20112303 0.2583257
38.112411 -38.410648 -2.2722192 0.96378416 0.19569997 -0.18116714
37.466286 -31.925777 -0.37056389 0.98634952 0.13084608 -0.099969588
36.602905 -24.832106 0.81259602 0.98479551 0.13286075 -0.11191856
30.903709 17.026434 9.7752209 0.99152189 0.068226613 0.1105861
