# .PCD v0.7 - Point Cloud Data file format
VERSION 0.7
FIELDS x y z normal_x normal_y normal_z
SIZE 4 4 4 4 4 4
TYPE F F F F F F
COUNT 1 1 1 1 1 1
WIDTH 728
HEIGHT 1
VIEWPOINT 0 0 0 1 0 0 0
POINTS 728
DATA ascii
27.041651 -34.730366 5.764008 0.69000828 -0.71246374 0.12760833
23.01186 -33.78849 16.768192 0.61555678 -0.628694 0.47521979
20.802431 -34.863789 17.621418 0.49183613 -0.75864929 0.42725694
25.527472 -34.287254 11.616405 0.66702116 -0.67877978 0.30714959
11.661942 -33.203468 26.430414 0.34615946 -0.52749687 0.77583545
28.656065 -32.595051 6.5920324 0.85747719 -0.47192165 0.20499468
21.611614 -33.433723 18.781012 0.60004634 -0.60066098 0.52834725
14.488943 -32.523563 25.400974 0.41707769 -0.51431692 0.74934924
26.087286 -33.043381 12.781753 0.77608353 -0.50104636 0.38294503
28.873243 -32.972355 4.2339826 0.83505386 -0.53723401 0.11859424
29.179642 -30.397635 8.0093231 0.90264362 -0.34103662 0.26254225
27.836746 -31.973791 10.109078 0.83799517 -0.44011021 0.32259429
26.986784 -30.861761 13.14086 0.82915711 -0.3641164 0.42416713
24.273237 -33.871967 14.847374 0.66803765 -0.62482363 0.40413001
18.709776 -31.696728 23.685059 0.33411753 -0.77781266 0.53232783
23.787439 -31.809763 17.436825 0.70115399 -0.46946758 0.5366407
21.036873 -31.569067 21.710253 0.46038473 -0.80673158 0.3704457
22.149035 -31.851192 19.732677 0.63487935 -0.62752414 0.45071247
24.961092 -31.508289 16.241093 0.7741493 -0.40296495 0.48817211
30.349874 -29.548019 3.2723355 0.93514687 -0.34035015 0.098296449
30.009295 -29.855135 5.0909052 0.92515361 -0.34648335 0.15504821
24.397686 -30.772934 17.427874 0.77295202 -0.48492539 0.4091363
30.221216 -28.402336 6.7247629 0.92786181 -0.31835446 0.19422379
26.223787 -28.962406 15.784394 0.82127589 -0.30154142 0.48433337
30.138975 -27.440844 8.162652 0.90777045 -0.31294817 0.27931401
31.136026 -26.902365 4.1769047 0.94538975 -0.30778137 0.10727952
28.836319 -28.794497 10.65991 0.88195461 -0.32058412 0.34551683
32.149246 -24.320274 1.7038136 0.95523113 -0.29272857 0.042935006
27.881018 -27.798527 13.565452 0.84570402 -0.30522415 0.43774763
27.737875 -25.211262 15.496423 0.8174212 -0.28906366 0.49826172
26.123537 -26.792891 17.178265 0.84309483 -0.28017864 0.45901105
31.247826 -25.473804 6.4665608 0.93470818 -0.30114266 0.18876915
30.875271 -25.089037 8.4887466 0.91985661 -0.29935193 0.25348032
29.792364 -25.255474 11.458953 0.87526816 -0.30412504 0.37604997
25.675369 -25.255793 18.622528 0.80434161 -0.25189549 0.53812951
31.825727 -23.32329 6.7271471 0.93737274 -0.28469384 0.20070313
32.185795 -23.450127 4.6032324 0.94869399 -0.29168177 0.1220723
29.068039 -24.577389 13.476098 0.85644627 -0.29306161 0.42498791
32.503101 -21.337872 6.4201212 0.94451475 -0.27192247 0.18425556
30.308207 -25.302773 9.9296732 0.90165907 -0.30269778 0.30884472
31.682068 -22.380192 8.6403103 0.92193156 -0.27897477 0.26872906
28.974125 -21.395792 15.639775 0.82676727 -0.27104169 0.49294245
29.689207 -21.885752 14.086457 0.85973585 -0.27655825 0.42938304
35.875053 18.090961 -12.548075 0.94032562 -0.057585545 -0.33536792
33.123806 -20.470211 4.0615883 0.95823157 -0.26314536 0.11201226
30.606483 -22.823969 11.329249 0.89096326 -0.27904871 0.3582125
31.797539 -20.241192 10.279658 0.91043037 -0.26611024 0.31670466
33.327621 -18.920086 5.5357518 0.95535368 -0.25224009 0.15386431
32.806652 -19.098534 7.8342638 0.93921036 -0.25462312 0.23032798
31.00704 -19.241003 12.932015 0.87623024 -0.25567836 0.40847167
26.572775 -18.944469 20.496881 0.75342405 -0.25610042 0.60561115
32.46386 -17.807201 10.376087 0.91892469 -0.24662632 0.30781966
27.917061 -17.698214 19.133162 0.79744273 -0.23914447 0.55398107
33.9744 -17.504238 3.1449871 0.96619797 -0.2410024 0.091538176
28.260504 19.573811 -24.363018 0.41739371 -0.80568874 -0.42029539
33.868576 -16.760073 5.703012 0.95657128 -0.24196184 0.16256037
29.199785 -18.00419 17.039845 0.83876091 -0.25654978 0.4802731
34.470314 -15.121732 4.1971245 0.96802783 -0.23075338 0.098362379
32.50967 -15.698794 11.664598 0.90767986 -0.22760694 0.35257965
31.157467 19.116062 -21.169577 0.46028149 -0.66447181 -0.58874297
33.326061 -16.947157 7.9856753 0.94391918 -0.24214874 0.22445635
33.596241 -15.026296 8.9294615 0.93748266 -0.22771645 0.26319495
29.552719 -16.262743 17.357298 0.83040625 -0.23752917 0.50398952
31.343159 -16.317533 14.068892 0.87186646 -0.24255146 0.42546162
26.445164 -16.253485 21.759241 0.75980645 -0.23565464 0.60593814
34.135201 -15.007107 6.4538898 0.95653182 -0.22817399 0.18161352
27.983711 -14.58216 20.347229 0.78697121 -0.21841687 0.57703584
34.837509 -23.107504 39.872837 0.28621781 -0.89623576 0.33888173
31.732029 -23.324371 41.123161 0.13089582 -0.88251144 0.4517076
31.779274 -13.691999 14.547683 0.87485707 -0.22247723 0.43026626
34.328205 -13.224924 7.6780758 0.95598358 -0.20372418 0.21116817
30.195065 -14.261067 17.220675 0.83489347 -0.21236777 0.50779217
32.823414 -13.74504 11.965481 0.90597171 -0.21587496 0.36416131
25.853653 -14.82802 22.940731 0.73832357 -0.21390481 0.63962734
35.458252 -21.871273 41.852928 0.35455692 -0.79000765 0.50017738
38.014053 -22.459179 36.838554 0.61789656 -0.78625298 0.003178234
37.157795 -21.980122 40.055931 0.45151043 -0.80939567 0.37552226
33.45882 -13.756183 10.274906 0.93365598 -0.20970227 0.29036435
32.37701 -11.794774 14.236788 0.88762563 -0.20031962 0.41472006
28.717735 -12.668132 20.06399 0.8015967 -0.19658622 0.56462073
35.009914 -11.53954 5.7452059 0.96710211 -0.18736067 0.17207395
35.221828 -10.181214 6.038857 0.96987623 -0.18317842 0.16057964
34.515404 -11.747841 8.0382891 0.95723301 -0.18950428 0.21861637
26.841412 -12.075525 22.614624 0.75899702 -0.19860397 0.62006456
38.758549 -21.697412 38.365665 0.60403806 -0.74543321 0.28189939
30.484529 -12.535356 17.382586 0.84321576 -0.19558948 0.50073129
33.945839 -9.0052118 11.749517 0.92557436 -0.17264666 0.33690545
34.75906 -10.100778 8.4700241 0.95460856 -0.18467739 0.23370224
33.997524 -10.686016 10.86482 0.92563015 -0.19515876 0.32422498
28.666975 -10.997488 20.621572 0.78693426 -0.18428165 0.58887577
35.970032 -8.2176247 3.3788068 0.97964615 -0.17669649 0.095245682
26.792078 -9.7674484 23.449627 0.74409056 -0.18099743 0.64309341
37.818344 -20.447552 41.742802 0.56085438 -0.64725602 0.51623827
35.28426 -19.974693 44.260597 0.36976051 -0.60053152 0.70897049
35.650459 -8.1815662 5.8036966 0.97094315 -0.17617211 0.1619655
28.268738 -8.9466028 21.81389 0.78556466 -0.17254825 0.594235
34.65588 -8.7034149 9.7034216 0.94954896 -0.16431847 0.26712593
30.348827 -10.03756 18.517517 0.81992507 -0.18594775 0.54142988
35.677319 -7.130702 6.6338449 0.96657348 -0.16397996 0.19709447
34.556446 -6.8223581 11.062661 0.93346137 -0.16279298 0.31960651
31.909971 -9.4187708 16.161612 0.86279821 -0.17451283 0.47447291
33.384342 -8.9343023 13.352359 0.90738815 -0.17007938 0.38434324
33.132065 -7.4737935 14.403455 0.88775522 -0.14569405 0.43665072
35.307087 -6.4122405 8.9478607 0.9565227 -0.16609934 0.23974024
39.882786 -17.830572 42.160271 0.64215422 -0.47641525 0.60055518
37.032951 -18.812145 44.04092 0.52413005 -0.51817906 0.67585367
30.389446 -7.5935087 19.321941 0.82588166 -0.16436312 0.53935546
29.977955 -5.6727071 20.362446 0.81367368 -0.13432622 0.56558955
36.72057 -16.115589 45.776867 0.45539838 -0.35415232 0.81681603
36.160736 -4.5135832 6.2744546 0.97586221 -0.1393555 0.16814512
41.400341 -16.28451 41.323769 0.81399852 -0.26364347 0.51758915
38.284542 -16.814856 44.365707 0.59619534 -0.36135787 0.71691811
33.944401 -5.7782578 13.240113 0.91625237 -0.13399245 0.37752819
32.345749 -6.2067113 16.37402 0.87635839 -0.1477658 0.45843357
31.591215 -5.6000295 17.945108 0.84990561 -0.13548198 0.50922006
27.00013 -6.5980115 23.937246 0.73765463 -0.15182632 0.65788621
28.680874 -6.5336995 21.912094 0.78200948 -0.15248591 0.60432535
35.093559 -5.0383286 10.442149 0.94491208 -0.13203606 0.29951215
36.786972 -2.137954 3.9266665 0.98685557 -0.12386102 0.10380034
35.822601 -3.9882145 8.3565683 0.96704495 -0.12560591 0.22146598
35.412975 -2.3441811 10.523345 0.94439745 -0.11708701 0.30725259
39.429939 -15.898266 43.662731 0.66942424 -0.28389925 0.6864928
37.685696 -14.512365 45.513599 0.57666361 -0.15709575 0.80173564
27.357811 -4.4687791 24.041435 0.73885405 -0.12352283 0.66244763
39.926876 -14.489186 43.704697 0.71427941 -0.13687159 0.68634629
34.065075 -3.9672637 13.511415 0.91027105 -0.13608101 0.39100942
31.531767 -4.0555401 18.399496 0.84548676 -0.12995178 0.51794285
28.761442 -4.3844228 22.330608 0.78061152 -0.13316695 0.61066544
33.165653 -3.6454363 15.615354 0.88038111 -0.13462162 0.45475942
41.768085 -13.09383 41.617157 0.83433753 -0.018848563 0.55093157
31.41308 -1.6760004 19.181017 0.82651794 -0.11717764 0.55057919
30.227667 -3.6570032 20.481386 0.81360632 -0.12641352 0.56750715
27.731422 -2.450753 23.917221 0.74487478 -0.10949768 0.65815789
25.946983 -2.385668 25.836468 0.69691306 -0.10656027 0.70919472
38.166279 -12.9945 45.291294 0.58036429 -0.008452463 0.81431311
35.205353 -13.905068 47.045025 0.40788975 -0.12922424 0.90384018
35.038651 -1.9434551 11.825638 0.93188727 -0.11448547 0.34420803
32.639359 -1.7533 17.094986 0.86804062 -0.1211109 0.48149511
36.61351 -1.6090826 5.7653255 0.9816215 -0.11334401 0.15353268
29.262804 -1.4380461 22.274515 0.78792608 -0.11356414 0.60520715
33.742226 -2.0680075 14.845662 0.90110248 -0.12039699 0.41655606
37.035442 1.1648439 5.0647645 0.98376268 -0.093486294 0.15320347
36.24905 -1.15237 7.9212894 0.96862894 -0.10250539 0.22638604
39.961353 -12.426956 43.81662 0.70027065 0.044865161 0.7124663
36.856956 2.1777315 6.4064245 0.97994417 -0.086674206 0.17943537
35.512207 -0.08501032 10.991253 0.94386131 -0.11411395 0.31000605
34.364605 -0.13272193 14.014629 0.91762108 -0.10520882 0.38327879
35.197334 1.2631361 12.385879 0.93063951 -0.085735522 0.35575217
29.618141 0.66500801 22.189671 0.79442173 -0.10628547 0.59799445
41.007942 -8.9565172 42.009422 0.80675656 0.11092472 0.58037889
37.283741 3.0437326 4.0729179 0.98987156 -0.082477018 0.11555041
33.612072 1.216736 16.015944 0.8871572 -0.1029093 0.44984633
30.248714 2.0085611 21.606068 0.7980687 -0.082700223 0.59686434
36.205574 0.65342736 8.7850618 0.96406549 -0.10510149 0.24399064
27.854872 0.51777112 24.282139 0.75088096 -0.10249859 0.6524353
31.99366 0.87858421 18.82666 0.8429215 -0.09934625 0.52878511
36.106369 2.4898858 10.056952 0.95794368 -0.080531329 0.27542436
34.435188 2.094465 14.312807 0.91586506 -0.088750817 0.39155394
37.540657 5.2533774 3.3946807 0.99459809 -0.059945341 0.084742032
37.292461 4.937232 5.1727929 0.98614162 -0.069038838 0.15085858
36.753193 4.2829494 7.9707599 0.97458744 -0.055631775 0.21698959
36.750721 3.1173975 7.6038795 0.97794408 -0.084020264 0.19122228
33.28574 2.7218766 16.919994 0.87256348 -0.079883195 0.48192495
31.14912 2.8168168 20.350964 0.83226854 -0.07756456 0.54891968
41.362869 -5.6075578 40.811939 0.83782512 0.13468558 0.52906406
35.809181 4.0842223 11.258462 0.94545078 -0.074696384 0.31708562
29.089766 4.0870585 23.295937 0.77015889 -0.081834145 0.63258082
34.396935 4.8463778 15.095707 0.90429717 -0.063354403 0.42217627
37.246193 7.0563698 6.1082993 0.98591757 -0.042207051 0.16181819
35.336552 4.6415715 12.850301 0.93590462 -0.069354258 0.34535849
31.847544 5.5054297 19.779449 0.82870585 -0.069862142 0.55530715
35.577396 6.732471 12.396168 0.93571675 -0.047237962 0.34957495
32.755531 4.6679463 18.147636 0.86498904 -0.070913002 0.49675468
27.749712 5.4431686 25.026203 0.71918923 -0.063695051 0.69188857
36.388073 6.2035532 9.931922 0.95759094 -0.058105107 0.28221142
37.542847 8.959775 4.6593585 0.99060798 -0.036838755 0.1316766
28.839897 5.8105559 23.860395 0.76116586 -0.060566749 0.64572293
36.32666 8.2771626 10.365862 0.95961553 -0.042821992 0.27803656
32.936954 6.5069346 17.967957 0.87438744 -0.057971317 0.48175302
35.193512 7.3178134 13.428569 0.92370576 -0.055740103 0.37902611
34.15065 6.8470802 15.799131 0.89361852 -0.053064 0.44567943
37.021641 10.197361 8.1304178 0.9749248 -0.031716734 0.22026271
32.491699 7.9900012 19.017071 0.85504144 -0.040909868 0.51694345
30.004093 5.792542 22.326231 0.80048114 -0.064884774 0.59583539
30.908613 8.5935507 21.401878 0.80962819 -0.047412533 0.58502507
29.108622 9.1719952 23.804379 0.76991367 -0.039671108 0.63691378
36.004478 9.3871784 11.710186 0.94296741 -0.037574124 0.33075765
27.859486 7.9099278 25.040462 0.7211591 -0.046334926 0.6912182
34.85054 9.0349531 14.61937 0.9162901 -0.04239409 0.39826527
33.881428 9.157815 16.583733 0.88424414 -0.040058497 0.46530369
30.445333 11.085027 22.17771 0.79753965 -0.029528096 0.60254335
35.417595 10.712492 13.301291 0.93322712 -0.011766212 0.35909414
31.774418 10.214005 20.23411 0.84229761 -0.029837957 0.53818619
28.642332 11.333108 24.372177 0.74424821 -0.017325571 0.66767842
36.483467 11.556252 10.220699 0.96004897 -0.016601963 0.2793389
34.534389 10.899848 15.323003 0.90789038 -0.022388088 0.41860947
31.885702 11.506038 20.179916 0.83458978 -0.036545582 0.54965842
34.737606 13.057769 15.14086 0.90289569 -0.025323534 0.42911312
33.347172 10.716563 17.64115 0.87396902 -0.023364965 0.48541975
29.520891 12.64542 23.456001 0.77796441 -0.020311985 0.62797999
35.359665 13.682434 13.54415 0.92892182 -0.026085479 0.36935595
37.048508 14.172681 8.1413059 0.97498727 -0.0069804145 0.22215103
36.261879 12.86814 11.070436 0.95311135 -0.021673383 0.30184275
33.260395 12.510129 17.894096 0.87256998 -0.038385872 0.48697853
30.875849 13.588003 21.67815 0.80582011 -0.011221455 0.59205407
27.484756 12.655079 25.620735 0.71602082 -0.020738516 0.69777077
29.916544 19.422613 -22.357431 0.4749876 -0.73274606 -0.48730895
32.538399 13.724514 19.308859 0.85047591 -0.020013368 0.5256331
29.236813 14.674009 23.790955 0.75878704 -0.01481264 0.65117019
33.837654 13.939561 16.915783 0.88915384 -0.02050182 0.45714903
33.475616 15.126511 17.657871 0.87300032 -0.00066708785 0.48771924
40.63768 6.2932653 38.677116 0.86403435 0.14410296 0.48236802
34.798 16.3011 15.028852 0.91421139 -0.010735215 0.4050954
32.030529 15.589145 20.082422 0.83367783 -0.0020086821 0.55224746
-41.783138 3.1032696 -37.822674 -0.9324075 0.070893966 0.35438707
35.893799 15.668159 12.454859 0.94281751 -0.013116557 0.33305109
34.519245 17.499786 15.697401 0.90415204 -0.0083101103 0.42713013
35.386295 17.848263 13.641298 0.9309628 0.0021596579 0.36510763
29.914249 17.10585 23.008682 0.79021239 -0.005872468 0.61280501
31.035769 20.312994 -22.317568 0.77250826 -0.2499242 -0.58375412
40.816639 7.9066615 37.894039 0.9019559 0.14383706 0.40716887
33.470772 17.545183 17.653431 0.86666781 -0.0080202399 0.49882123
34.254654 19.424509 16.308788 0.89979154 -0.0037760013 0.43630356
35.176537 20.904636 14.134795 0.92256641 -0.0044249203 0.38581318
40.673492 9.8987331 37.267467 0.91839403 0.1622894 0.36085248
31.336205 20.926174 21.153027 0.8214649 0.0062324745 0.570225
31.870281 18.371555 20.362566 0.83618188 -0.0058141327 0.54842144
30.611336 19.62459 22.114096 0.78722602 0.011412571 0.61655897
33.556808 20.575075 17.594366 0.86472297 0.0010457898 0.50224811
34.704269 22.832973 15.299367 0.91103446 -0.0021015964 0.41232485
29.026644 22.323673 23.927664 0.80988634 -0.20876981 0.54817814
33.686752 22.954992 17.373062 0.87379539 -0.005236981 0.48626557
32.178265 23.185823 19.840967 0.83602589 -0.0035852112 0.54867828
36.159519 23.879894 11.79243 0.94416475 0.0014792192 0.32947025
30.978966 24.883446 21.478733 0.80812919 -0.061004117 0.5858376
35.053623 25.38291 14.570286 0.91748929 -0.0020583742 0.39775521
37.073811 25.380367 8.3852215 0.9712472 -0.0096760765 0.2378765
33.781406 25.892879 17.249228 0.88000971 -0.017738918 0.47462419
32.487816 25.316036 19.491718 0.84376526 -0.033136062 0.53568858
31.114269 25.811485 21.781605 0.79044807 -0.12048754 0.60056186
29.814247 27.517323 23.540134 0.72417462 -0.15129241 0.67281622
32.021782 27.356607 20.366678 0.85495245 -0.031380761 0.51775616
30.669022 29.006058 22.948574 0.80034894 -0.1279528 0.58572149
36.892654 -16.557116 39.974285 -0.60557044 0.38206849 -0.69807452
38.274403 -17.149282 38.662876 -0.53221744 0.39684042 -0.74783838
38.364349 -18.308451 37.540665 -0.16761893 0.63707167 -0.75235868
39.289169 -16.456013 38.606697 -0.41012648 0.42078397 -0.80915827
35.57019 -15.445418 41.941299 -0.61950326 0.24427643 -0.74601918
36.247772 -13.229247 41.799217 -0.64732641 -0.063155457 -0.759592
36.235703 -14.413609 41.717361 -0.63935572 0.24467602 -0.72894293
34.97031 -12.924779 42.845745 -0.7011925 -0.018671915 -0.71272749
40.014481 -15.360896 38.451107 -0.46281061 0.25033855 -0.85037452
37.395901 -14.169969 40.611443 -0.57676566 0.2393817 -0.78104913
38.810223 -14.056381 39.739365 -0.56146473 0.17716968 -0.80831194
37.840836 -12.641698 40.456177 -0.59243631 -0.049218912 -0.80411232
34.352428 -9.7796965 42.852455 -0.69322765 -0.1357609 -0.7078166
41.558655 -13.283734 38.591675 -0.13496907 0.068902306 -0.98845124
39.523632 -12.996098 39.332275 -0.46221063 -0.0054298448 -0.88675362
36.808582 -11.404329 41.029961 -0.62763315 -0.12854482 -0.76782346
37.951859 -10.416826 39.985893 -0.59505302 -0.14595345 -0.79032236
40.278091 -11.516922 38.787464 -0.27380151 -0.10909873 -0.95557845
33.535175 -8.2639427 43.473091 -0.82362205 -0.11728975 -0.55487823
37.083324 -8.7639418 40.288807 -0.61155969 -0.15641826 -0.77558243
39.903576 -8.5826168 38.558643 -0.36991024 -0.11936166 -0.92136812
34.26466 -6.4510474 42.338154 -0.6956318 -0.14857008 -0.70286804
36.033413 -8.8264885 41.244095 -0.64564645 -0.14244898 -0.75023258
38.625412 -9.548521 39.345879 -0.50909871 -0.12782456 -0.85116351
41.148342 -10.133422 38.380943 -0.08492896 -0.15885815 -0.98364186
36.851387 -6.7716537 40.118481 -0.60893643 -0.14858617 -0.77917808
34.593967 -5.360817 41.809898 -0.64620537 -0.16496137 -0.74512172
39.055092 -6.8749242 38.7118 -0.43261164 -0.12821779 -0.89241654
37.063774 -5.3459353 39.638924 -0.56775433 -0.14339191 -0.81061316
38.884121 -4.5719972 38.405624 -0.44940156 -0.1565681 -0.87950259
35.263893 -3.8605578 40.874889 -0.62972772 -0.17355239 -0.75718063
41.228031 -5.4948606 37.855484 -0.13260794 -0.13304007 -0.98219931
33.688904 -3.1066096 41.984203 -0.60281336 -0.22629479 -0.76511872
33.356102 -1.6772783 41.22979 0.1662637 -0.42972797 -0.88751912
34.256344 -0.5408752 40.848202 -0.55156982 -0.23225676 -0.8011415
35.98262 -1.9776111 39.898907 -0.59295994 -0.17270432 -0.7864933
39.113655 -2.3066261 37.923702 -0.3752569 -0.14986745 -0.91472512
37.293243 -2.0555284 38.836819 -0.53843927 -0.17331953 -0.82464743
34.56728 2.0570726 39.773079 -0.55610776 -0.19215803 -0.80859101
39.216251 -0.56535488 37.576035 -0.38470471 -0.16195263 -0.90872091
36.551708 1.9621412 38.500153 -0.52280182 -0.17665052 -0.83395016
36.20911 0.29419556 39.129478 -0.52999419 -0.18956575 -0.82654154
40.508545 0.33487543 37.103622 0.022542987 -0.12407846 -0.99201632
38.65918 1.733353 37.390724 -0.38083094 -0.17546993 -0.90784252
37.288273 5.3870707 37.342243 -0.43287313 -0.17996797 -0.88330758
38.55933 7.1016245 36.377167 -0.31092495 -0.18721563 -0.93181324
35.696129 7.3451395 37.854267 -0.49031079 -0.2087304 -0.84618378
37.1264 8.2599487 36.845318 -0.44531944 -0.19280593 -0.87436634
-18.900078 -20.711102 -27.993107 -0.53410155 -0.28594565 -0.79559445
35.967777 9.3558273 37.121895 -0.40655017 -0.22171438 -0.88631803
-21.296139 -18.616833 -26.971724 -0.59219563 -0.23635702 -0.77035034
37.70491 9.9546995 36.214016 -0.37088612 -0.19656704 -0.907637
-19.067739 -18.792942 -28.476986 -0.53856301 -0.23496921 -0.80915964
36.330349 12.982562 36.078217 -0.37480167 -0.21220024 -0.9024936
39.431396 9.0886698 35.780998 -0.068087213 -0.16534069 -0.98388338
-21.344927 -16.592014 -27.491402 -0.58639616 -0.22136642 -0.77918959
28.366255 24.25919 -26.131783 0.74402332 -0.068684436 -0.66461396
38.284485 12.010053 35.518059 -0.28683248 -0.20572048 -0.93563139
-20.255003 -15.86596 -28.494898 -0.55273122 -0.22219954 -0.80319089
-18.117737 -17.447529 -29.442543 -0.50601816 -0.22517878 -0.83261043
36.575283 15.564958 35.3783 -0.34627461 -0.20989631 -0.91435075
38.845184 13.561537 34.958691 -0.016939376 -0.18339632 -0.98289311
-17.484818 -16.570211 -30.002417 -0.49088582 -0.22647634 -0.84127253
16.865007 14.139852 30.869358 -0.63836944 -0.31235266 -0.70350569
-19.198755 -15.012672 -29.437155 -0.52476698 -0.21666992 -0.82320946
-19.200933 -13.096249 -29.936047 -0.52895409 -0.20679632 -0.82306916
20.392345 13.353713 29.035181 -0.64953256 0.077823229 -0.75634056
38.565235 15.474707 34.678783 -0.14976111 -0.18730134 -0.97081918
19.452278 14.041913 30.260098 -0.31065828 -0.16107769 -0.9367739
21.304012 13.698703 28.404554 -0.68824452 0.15803899 -0.70805591
22.172764 12.772858 27.285351 -0.74011844 -0.080440693 -0.66764814
16.337776 14.999477 30.99794 -0.58178616 -0.25163972 -0.77343547
24.835381 12.155951 24.516249 -0.71948451 -0.14592989 -0.67900407
-21.17761 -12.913678 -28.621828 -0.57827008 -0.19785678 -0.79148996
22.694399 13.354401 26.990767 -0.69489121 0.084675595 -0.71411222
21.959253 14.52457 28.127182 -0.73937148 0.053373966 -0.67117876
20.504866 15.079376 29.836668 -0.56687862 -0.10938039 -0.81650758
15.686828 17.001068 30.899956 -0.57687873 -0.31428427 -0.75394714
26.108246 12.744864 23.894949 -0.31725487 -0.7942661 -0.51816088
18.375782 16.762634 29.105694 -0.1431267 -0.4412621 -0.88589084
20.278069 16.31753 28.819859 -0.2143288 -0.34895128 -0.91230261
17.744724 15.897489 30.198275 -0.51390308 -0.26261041 -0.81666362
22.986177 14.751698 26.667038 -0.73437041 0.17385334 -0.65610594
24.426842 13.431195 24.878399 -0.77402836 0.061623096 -0.63014495
26.963625 12.449318 22.763496 -0.7648738 -0.44657302 -0.46426341
-18.38929 -11.741192 -30.747787 -0.50533897 -0.17166026 -0.84567446
15.132985 17.969175 30.886946 -0.80441922 -0.042354207 -0.59255034
25.947926 13.228366 23.25197 -0.72225434 -0.15438958 -0.6741755
28.100351 12.017118 20.76326 -0.86385572 -0.25116971 -0.4366543
37.155132 17.805183 34.588959 -0.2244623 -0.3454116 -0.91121215
20.354628 17.554424 29.134598 -0.25485891 -0.15119851 -0.95508426
27.183514 13.064545 21.974592 -0.7731781 -0.24031766 -0.58689266
14.026271 18.16744 31.911701 -0.68072259 -0.014286241 -0.73240197
17.050533 18.07029 29.781116 -0.5891766 -0.15158989 -0.79365706
24.881817 14.954279 24.773073 -0.75814128 0.14583556 -0.63557351
25.970255 14.372596 23.163418 -0.78267401 -0.032829545 -0.62156546
32.475628 18.939545 -19.811525 0.77759159 -0.28403139 -0.56096119
-20.714254 -10.510913 -29.51049 -0.55690247 -0.17243505 -0.81248128
14.616084 19.482212 31.33786 -0.7201817 -0.070142031 -0.69023073
17.522133 17.066341 29.136932 -0.5576303 -0.27936065 -0.78166866
19.002722 18.039248 28.37035 -0.068396665 -0.3418861 -0.93724906
-22.54007 -8.4717731 -28.621014 -0.61116922 -0.15324673 -0.77652276
-16.875612 -10.598933 -31.835241 -0.47806108 -0.17296413 -0.86112773
20.71224 18.307402 28.394419 0.058015287 -0.20975043 -0.97603226
21.946745 18.651739 28.229197 -0.55039948 0.02003129 -0.83466107
18.170677 18.726767 28.726442 -0.45994744 0.048015803 -0.88664693
-20.149429 -8.6644945 -30.229525 -0.53895891 -0.16269034 -0.82647151
16.28286 19.701832 29.553532 -0.49886969 0.056144178 -0.86485654
14.070217 21.736469 31.601151 -0.57421875 0.053800963 -0.81693226
17.484505 20.425394 29.489136 -0.31088409 0.3476873 -0.88457024
19.295399 19.165705 28.358973 -0.15266609 0.14306785 -0.97786736
-19.343418 -7.4572806 -31.019758 -0.52644992 -0.14889164 -0.83706743
15.003469 20.560049 30.731428 -0.65429842 0.047986347 -0.75471246
32.268719 21.188339 -20.472872 0.85368466 -0.074374437 -0.51545215
13.175422 22.707758 31.99852 -0.34233874 0.068009116 -0.93711203
14.761883 22.43877 31.399445 -0.3864449 0.28112873 -0.87842298
16.268156 22.211365 30.867733 -0.27826464 0.39895764 -0.87372857
20.795389 21.405035 29.390978 -0.44459444 0.19040717 -0.87526047
14.859804 23.357553 31.496607 -0.31204236 0.13274182 -0.94074923
20.157803 22.676725 29.514574 -0.38260835 -0.067638293 -0.92143136
22.434889 22.509024 29.041498 -0.53440607 0.16919006 -0.8281213
23.446875 23.412466 28.507843 -0.85033363 0.3879371 -0.35558051
-35.380394 -2.5790043 9.6108742 -0.94646394 -0.085424736 0.31130171
-21.025585 -5.1565628 -30.314779 -0.55868018 -0.14193782 -0.81714755
-18.946011 -5.95084 -31.469067 -0.51513535 -0.13803419 -0.8459208
23.694033 24.165154 28.429703 -0.51204455 0.14344928 -0.84689599
-36.291618 -1.948082 6.7797499 -0.96904361 -0.10043351 0.22553825
24.106827 25.547712 28.141087 -0.032048225 -0.39504567 -0.91810226
-19.905481 -3.6148167 -31.293953 -0.5204016 -0.11949474 -0.84551948
22.119839 25.302458 27.687634 0.1557162 -0.56487483 -0.81035113
-18.07963 -3.0827901 -32.401978 -0.48753202 -0.11806016 -0.86508638
10.965977 -7.5491953 -34.398079 0.38763461 -0.1547861 -0.90872478
19.475769 25.859095 28.606005 -0.86894071 -0.31433374 -0.38227791
20.657219 25.671621 27.39184 -0.26046997 -0.61291349 -0.7459842
-21.696569 -2.2820191 -30.287235 -0.57518697 -0.10463931 -0.81130183
22.360249 26.881498 26.849195 0.26085046 -0.42141631 -0.86854208
-18.843506 -1.1834416 -32.227425 -0.50167972 -0.10587279 -0.85855025
-20.342117 -1.0427512 -31.321791 -0.5343433 -0.094465807 -0.83997232
-19.052872 1.0336596 -32.344398 -0.51567513 -0.086866863 -0.85236925
-17.355101 -0.69407576 -33.111553 -0.47199947 -0.094739825 -0.87649351
-21.565903 2.0709143 -30.846079 -0.56110334 -0.09310852 -0.82249254
-21.718435 3.8022935 -30.96748 -0.55793142 -0.071583278 -0.82679403
-19.148916 3.7848959 -32.530785 -0.49813187 -0.068796515 -0.8643679
12.27068 1.2801964 -35.109566 0.39362103 -0.097749725 -0.91406101
-21.397774 7.0227599 -31.316633 -0.55976123 -0.035139434 -0.82790852
12.726936 3.8907108 -35.163723 0.41390675 -0.084479913 -0.90639085
10.922657 2.2185519 -35.709141 0.34037197 -0.093451411 -0.93563545
8.8935413 3.9681628 -36.616161 0.26521364 -0.073420346 -0.96139026
13.35074 6.6057239 -35.115517 0.4220686 -0.057865407 -0.90471518
11.100441 4.7047067 -35.902992 0.34926412 -0.08215896 -0.93341553
9.8434019 5.8076801 -36.388073 0.3018336 -0.052734014 -0.95190096
10.012033 7.3367801 -36.450687 0.29172045 -0.045596998 -0.95541626
11.631902 7.1339545 -35.872101 0.35883316 -0.054744851 -0.93179494
13.361835 9.5374489 -35.278526 0.42638764 -0.059699327 -0.90256834
10.067319 9.4364061 -36.517014 0.28062201 -0.034073874 -0.95921338
-36.223118 -0.48968124 7.6781168 -0.95662016 -0.087366715 0.27792984
11.889934 11.343174 -35.978569 0.34832954 -0.034551613 -0.93673515
13.615372 11.900597 -35.277512 0.4209598 -0.047476333 -0.90583599
27.281544 25.121899 -27.24802 0.69574052 -0.053249191 -0.71631676
10.950035 13.282985 -36.32304 0.32117346 -0.027048701 -0.94663399
13.437382 13.72481 -35.440453 0.36655608 -0.028160144 -0.92996979
10.787023 15.186255 -36.444702 0.28631586 -0.018448696 -0.95795768
-22.396038 20.747869 -30.699507 -0.59393436 -0.31988996 -0.73818183
13.378172 15.82517 -35.5322 0.36990246 -0.038786795 -0.92826062
15.054577 15.761653 -34.813671 0.42744267 -0.045852594 -0.90287888
18.513399 16.551935 -33.067574 0.5088402 -0.068346426 -0.85814357
17.828491 17.841124 -33.53495 0.47308713 -0.053233806 -0.87940586
-23.332678 20.892195 -30.284443 -0.45247158 -0.66940206 -0.58921158
10.10569 16.363394 -36.673473 0.26944318 -0.026756814 -0.96264452
19.701328 19.324587 -32.548325 0.51370537 -0.061170973 -0.85578316
-20.326841 21.759295 -32.011059 -0.41303429 -0.18947963 -0.89078623
12.840712 17.102232 -35.810387 0.34651831 -0.037925422 -0.93727618
-21.478853 21.844934 -32.004684 -0.33994418 -0.38661468 -0.85730219
15.137092 17.6411 -34.867634 0.40904152 -0.043355417 -0.91148525
9.1274891 18.262413 -36.948631 0.234616 -0.02068915 -0.97186792
11.802445 19.084692 -36.261616 0.31663126 -0.031006221 -0.94804174
14.683874 19.39798 -35.158577 0.40311733 -0.049614299 -0.91380239
17.075691 18.906013 -33.985939 0.43993109 -0.049779065 -0.89665085
20.719961 21.449549 -32.091537 0.5330891 -0.062515743 -0.84374624
-19.492491 23.263418 -33.073929 -0.36782339 -0.18034361 -0.91224021
-42.365932 -3.3001904 -39.897579 -0.91801411 0.12200852 -0.37731138
12.743755 21.791992 -35.997379 0.32320935 -0.025335733 -0.94598824
17.770844 21.545855 -33.804802 0.47071895 -0.060223479 -0.88022542
10.301717 21.518869 -36.750225 0.27481928 -0.026279612 -0.96113676
15.198896 21.515556 -35.08276 0.40113178 -0.048775099 -0.91472089
14.24166 22.288996 -35.462814 0.35570896 -0.021152193 -0.9343574
16.347342 24.263758 -34.681454 0.41383484 -0.025490133 -0.90999502
19.480919 23.34609 -32.96899 0.50499731 -0.058656074 -0.86112553
-5.6524787 27.286806 37.140263 -0.13960569 0.014563938 0.99010003
18.222595 24.782166 -33.783092 0.47287625 -0.045239843 -0.87996674
12.463616 23.48003 -36.157581 0.31987578 -0.032332882 -0.94690764
15.185157 24.774786 -35.161774 0.35960889 -0.030717643 -0.9325974
-19.647326 27.983395 -32.805019 -0.5049119 -0.047337089 -0.8618719
14.067165 25.948774 -35.642559 0.35509792 -0.028919758 -0.93438172
36.531849 18.742453 -10.538156 0.96314651 -0.03105638 -0.26717871
29.254053 20.233635 -24.641184 0.70663488 -0.36002901 -0.60913563
-33.354256 11.547574 10.653675 0.99296689 -0.059840199 -0.10215644
-33.501461 11.638647 9.1694822 0.98327041 0.080245361 -0.1635233
-34.466873 1.603034 -40.852184 0.54327208 -0.16663495 0.8228538
-34.237789 12.099558 4.4114161 0.97891819 0.051972203 -0.19752951
-34.015701 11.39164 5.7608838 0.97390974 0.19222854 -0.12061553
-34.651962 10.449183 3.1480839 0.87520349 -0.0069464501 -0.48370501
-33.76487 12.778669 8.644475 0.97974467 0.13425156 -0.14858322
-34.023216 13.256922 7.2023039 0.99302208 0.05579529 -0.10389333
-34.021458 14.859761 5.7781229 0.99143547 0.12390453 -0.041273199
-32.951397 13.005631 11.176209 0.95286614 0.087734915 -0.29042855
-34.36705 14.647869 4.254499 0.91811544 0.21690381 -0.3316879
-33.588665 3.3841081 -41.488369 0.77530527 -0.19829868 0.59964937
-34.857655 13.427412 2.6984446 0.86264026 -0.0821307 -0.49910557
-33.954044 14.643756 7.3014312 0.92315191 0.38427234 0.011200285
-35.281059 14.527949 1.2439505 0.76784641 -0.08605355 -0.63482809
-33.099018 5.5650854 -41.365234 0.73201716 -0.20700258 0.64907688
-34.609337 16.195421 5.8179975 0.85837352 0.49052942 0.15025271
-33.78392 7.2475572 -40.250332 0.67182106 -0.20503412 0.71177065
-36.277172 2.2489281 8.1051998 -0.96258831 -0.054859471 0.2653569
-32.509686 8.3095188 -41.147137 0.76715171 -0.20049694 0.6093269
-30.89076 20.309969 21.490215 -0.7041676 -0.35540539 0.61468285
-33.894409 9.5266409 -39.473312 0.67756492 -0.21583097 0.70308101
-41.071327 9.4568548 -36.792049 -0.93775529 0.07428696 0.33925873
-32.618896 10.009494 -40.563026 0.72767454 -0.21484934 0.65140581
-31.393106 21.498434 21.050472 -0.8182382 -0.09330105 0.56725758
-35.68148 6.8374386 10.345889 -0.78738439 -0.16800249 0.5931282
-33.363014 11.301231 -39.371941 0.69011265 -0.23393908 0.68484819
-36.047733 7.9527569 10.058456 -0.95267379 -0.071779504 0.29539859
-40.405182 15.466566 -36.177616 -0.98434144 0.12844443 0.12072246
-32.013596 12.547833 -40.336567 0.77175504 -0.20238407 0.60285556
-33.162369 25.015215 15.321198 0.94731563 -0.015406153 -0.31993085
-32.136131 24.566797 15.893052 0.77971452 0.48230067 -0.39928845
-36.631485 7.9819407 7.9437561 -0.96227902 -0.045742799 0.2681914
-39.698265 17.574465 -35.27449 -0.34017837 -0.1158067 0.93320286
-34.510105 8.6476068 10.926107 -0.13316642 -0.30309713 0.94360948
-32.903664 24.640308 14.231289 0.93570656 0.13063054 -0.32770228
-33.114758 25.433128 14.245173 0.92363435 -0.26957852 -0.27244622
-40.006405 17.54022 -36.436153 -0.92058736 0.27661139 -0.27569008
-31.921833 25.991507 16.039457 0.83482188 -0.40000039 -0.37824878
-36.043114 24.946169 -0.12780286 0.98597455 0.14446187 0.083576001
-35.790569 9.5693331 11.041471 -0.88381654 -0.086235143 0.45981708
-36.514423 26.070454 2.6714661 0.82787758 0.55217934 -0.098573782
-36.566113 26.259079 4.6633916 0.88877225 0.36216268 -0.28093049
-32.151546 27.232487 15.184429 0.90874577 -0.00085270888 -0.41734931
-36.161747 27.714794 5.3542352 0.92474365 -0.28844583 -0.24829072
-32.768845 27.11495 13.22499 0.92556959 -0.14119579 -0.35126165
-36.543369 27.246902 3.7038488 0.89028758 -0.4536415 0.039965972
-35.803127 27.109432 6.6254458 0.89353287 -0.092202634 -0.43942893
-35.893166 27.597883 0.80295581 0.99429947 -0.10393353 0.023800582
-27.793455 12.02702 -26.093546 -0.72019589 -0.013912282 -0.69363117
29.056147 26.195562 -25.473942 0.73203903 -0.088718385 -0.67546129
29.032846 28.048754 -25.98418 0.72314358 -0.19227344 -0.663396
27.215012 28.386787 -27.948147 0.52201194 -0.45990014 -0.71832818
-33.046013 -13.184941 -46.785175 0.99987012 0.0137923 0.0083424095
-32.95612 -11.997425 -46.271603 0.96782285 -0.07726071 0.23947783
-33.416512 -10.017198 -45.02203 0.83367491 -0.12717883 0.53741187
-32.720749 -8.911932 -46.597916 0.99600613 -0.088283733 -0.013335766
-32.761757 -7.9182682 -45.734241 0.90160042 -0.12663123 0.41361958
-32.554375 -3.8213921 -45.004837 0.91599178 -0.12325495 0.38179472
-32.138 -2.1931195 -45.347706 0.95033669 -0.14766589 0.27396172
-31.8465 0.0219668 -45.094242 0.99221307 -0.12246714 -0.022694612
-32.280155 0.88501537 -43.983898 0.84826624 -0.17152961 0.50102103
-32.102516 3.1328135 -43.463306 0.82983619 -0.177617 0.52898401
-32.442818 4.9029155 -42.425457 0.81113619 -0.19796731 0.55033356
-31.396803 3.3304598 -45.090851 0.99442124 -0.10532694 -0.0057074754
-31.568497 7.2635694 -42.822659 0.85255754 -0.19864543 0.48341054
-31.117222 5.6780481 -44.495953 0.95582932 -0.17747501 0.23429228
-30.525356 10.538028 -43.373299 0.88798225 -0.18881731 0.41932753
-30.38974 10.679954 -44.439125 0.92268187 -0.10725033 -0.37034518
-30.038073 12.518696 -43.959538 0.99303758 -0.1173874 0.0098197972
-30.89476 12.117695 -42.012699 0.83155996 -0.20647009 0.5156337
-32.381397 14.009492 -39.418617 0.78385758 -0.23670436 0.57405436
-30.20472 14.183518 -42.319061 0.89224398 -0.1991238 0.40527809
-30.991764 16.380045 -40.151688 0.79394639 -0.24060608 0.55835283
14.027906 -3.7248006 -33.577343 0.55842286 -0.13951181 -0.81774104
-29.546356 16.716843 -42.533073 0.92235655 -0.23635754 0.30560344
-30.342239 18.254618 -40.213024 0.76404983 -0.37768745 0.52304882
40.969856 -15.115306 38.450184 -0.12179845 0.17436896 -0.97711849
-29.285625 19.372276 -40.566605 0.7135036 -0.6494422 0.26293993
13.954103 -0.84842139 -34.088291 0.52427644 -0.11725992 -0.843436
-29.497007 18.384733 -43.657932 0.62740707 -0.24212685 -0.74009109
14.406656 -1.1045637 -33.516705 0.87852341 -0.08444766 -0.4701758
-27.934013 20.798244 -38.925869 0.55746293 -0.82841128 0.05449678
-28.405325 19.298351 -44.054546 0.67244565 -0.64916527 0.35552961
14.5103 1.1575059 -33.370907 0.9052065 -0.046064258 -0.42246804
34.260525 -2.8818457 -10.557076 0.60656363 -0.11377507 -0.78685182
-27.994928 20.101885 -43.363586 0.84875512 -0.50681472 0.15084229
-27.73173 20.819708 -42.492428 0.75476474 -0.64397764 0.1249919
14.23629 1.4837427 -34.222515 0.62894529 -0.098792344 -0.77114707
14.538445 3.1053755 -33.221672 0.99710947 -0.07069651 -0.027834082
14.694294 3.5173621 -34.074394 0.84474337 -0.10860868 -0.52403522
14.419958 4.5765667 -32.893063 0.9554069 -0.095129654 0.27954954
14.705588 6.0944309 -32.906284 0.96440607 -0.10682657 0.24188654
14.571938 4.9966493 -34.367031 0.55625135 -0.10297795 -0.82460904
14.709446 7.6793427 -32.676949 0.86999065 -0.27907389 0.40648994
14.868708 5.6747208 -33.742004 0.97719896 -0.16401336 0.13484035
14.953447 7.0150476 -34.369957 0.63224775 -0.10217495 -0.76799941
15.52176 7.9804058 -33.982059 0.80071664 -0.18324457 -0.57032824
15.673261 9.1598282 -32.67683 0.90677589 -0.40795419 0.10644687
15.992993 10.682142 -34.074318 0.59203333 -0.1369046 -0.79420006
16.992596 12.48132 -33.562191 0.65130377 -0.18764043 -0.73525119
17.849483 12.698196 -32.294289 0.82244307 -0.56036592 -0.097864836
16.472734 14.962925 -34.076061 0.4632698 -0.058131423 -0.8843087
18.625263 14.77083 -32.837784 0.67037225 -0.2704905 -0.69096744
18.722639 13.913509 -31.529953 0.76015764 -0.64516956 0.076919556
20.1919 16.514935 -31.996883 0.64396822 -0.24824174 -0.72365797
19.993805 15.332809 -31.128038 0.72462755 -0.68464959 -0.078547709
21.172382 16.328278 -30.162752 0.65452588 -0.75114465 -0.085892946
22.352102 17.167858 -29.405302 0.58543682 -0.80308765 0.1109681
20.829348 19.130192 -31.809814 0.55120838 -0.08021909 -0.83050233
22.649427 18.386681 -30.48933 0.67206585 -0.3675611 -0.64282686
24.956488 19.485947 -28.809517 0.66163069 -0.29342294 -0.69003469
23.592798 18.405621 -28.542355 0.622603 -0.76990956 -0.14001676
25.562933 19.22014 -27.317225 0.57761759 -0.7073139 -0.40751064
22.733425 20.20042 -30.652582 0.58952522 -0.076006778 -0.80416608
26.683197 20.25791 -27.363041 0.68687421 -0.15925696 -0.70911276
23.065771 22.300461 -30.547358 0.58906811 -0.056200113 -0.80612671
27.806656 20.333824 -26.199507 0.67499852 -0.36287576 -0.64241588
35.56218 28.208725 -14.769 0.92831653 -0.1061986 -0.35630077
29.741915 22.045538 -24.241907 0.76428694 -0.078818962 -0.64004141
30.946835 22.562016 -22.823977 0.82274443 -0.066978298 -0.56445152
-33.903545 11.462953 12.180288 -0.14260106 -0.41690874 0.89769262
35.322838 22.045364 -14.552473 0.92848748 -0.060181677 -0.36645493
34.520107 22.591438 -16.650297 0.90543103 -0.069123805 -0.41882771
-3.0305257 27.199202 37.460403 -0.10687657 -0.0062600398 0.99425262
41.076485 -7.8240409 38.08205 -0.10224167 -0.097615361 -0.98995847
42.106827 -6.5855322 38.204971 0.64490914 -0.03625235 -0.76339895
30.393171 24.244232 -23.655771 0.78936839 -0.055743564 -0.6113838
33.479843 23.287512 -18.731705 0.86853009 -0.067038529 -0.49108177
40.667286 1.7188805 36.860016 0.063392013 -0.12845609 -0.98968703
41.410465 3.6915631 37.057083 0.92169505 0.038459763 -0.38600397
39.768394 4.5791006 36.551563 -0.16542324 -0.1660803 -0.97213811
40.875275 5.3006721 36.506695 0.49590221 -0.10296917 -0.86225194
40.227638 7.7096648 36.023869 0.086932965 -0.12631862 -0.98817319
40.01173 11.364624 35.475166 0.30972445 -0.12897579 -0.94203818
33.781223 -7.7943926 -9.9636736 0.77940071 -0.16311802 -0.60491908
35.629417 24.468718 -14.16569 0.93786699 -0.061842095 -0.34143978
36.403736 24.383575 -11.820876 0.95371377 -0.048595656 -0.29676315
32.130009 24.386915 -21.143078 0.84328294 -0.071087137 -0.5327481
25.677578 -28.424807 20.726467 0.65701616 -0.68567926 -0.31332687
24.289572 -29.488966 18.973791 0.90859514 -0.41709942 -0.021976255
23.527567 -30.462902 20.122755 0.57571119 -0.80894083 0.11904308
25.033419 -28.638309 17.827433 0.84913319 -0.326888 0.41486996
25.454384 -26.697311 19.27829 0.9464305 -0.31465515 -0.072534434
36.363575 20.180695 -11.223434 0.95751303 -0.046739839 -0.28457722
34.090157 24.633263 -17.719276 0.89123875 -0.047166213 -0.45107517
30.661835 -29.089731 1.0696278 0.94286245 -0.3316941 0.031455234
31.463348 -26.661282 1.1229621 0.95328337 -0.30199736 0.0069565186
35.726139 20.542437 -13.346713 0.94039381 -0.046861731 -0.33684364
32.82185 -22.005253 2.516747 0.9580698 -0.2833617 0.042526264
32.580685 -22.854836 0.61412776 0.95903111 -0.28325972 -0.004834122
33.052872 -21.220692 -0.65069938 0.96086931 -0.27535692 -0.030145792
33.735397 -18.944836 1.5872414 0.96547639 -0.25971618 0.02006875
33.430077 -19.694904 -1.653995 0.96448767 -0.25885943 -0.052491963
34.271729 -16.781635 0.98258334 0.97045636 -0.24054301 0.018799365
34.395267 -16.219028 -0.78116131 0.97188401 -0.22888872 -0.055239838
34.88451 -13.022141 4.7104187 0.96876824 -0.21110071 0.13009457
34.898849 -14.02077 1.9706956 0.97387147 -0.22129317 0.051025346
35.331749 -12.162599 1.4090879 0.97882754 -0.20461307 -0.0054809512
35.775978 -9.7281227 -0.76203334 0.98198724 -0.18606006 -0.032905106
35.621609 -10.702374 0.87073368 0.98128849 -0.1916967 0.018032722
36.161846 -7.5467358 -0.048730906 0.98761648 -0.15366472 -0.031637955
36.23103 -7.2905083 1.723937 0.98698115 -0.15847357 0.027463987
36.448517 -4.7711468 -2.2796814 0.98681557 -0.14418782 -0.073516861
36.375671 -5.1504531 4.1972542 0.98492885 -0.14252137 0.097993627
36.266384 -6.4602447 -1.2310749 0.98891014 -0.14059615 -0.04784758
36.588566 -4.8511524 0.88913864 0.99024427 -0.13934152 -0.00037135778
36.839127 -2.7991145 1.7702676 0.99062341 -0.12877078 0.04564416
36.884491 -2.643362 0.14171861 0.99101567 -0.13045685 -0.029479468
36.701527 -3.0189576 -2.5232189 0.98684132 -0.1283228 -0.098374255
37.072037 -0.26688153 3.2200611 0.99170488 -0.10066751 0.079921767
37.139809 -0.46309641 1.0767928 0.99444228 -0.10344128 0.01960901
37.14476 1.3098172 3.7048497 0.99172097 -0.099478424 0.081199624
37.050003 -0.77160323 -0.91996992 0.99193013 -0.11942167 -0.042579792
36.799553 -1.2376379 -3.5039816 0.98423141 -0.1192923 -0.1306058
36.502541 25.789822 -11.823358 0.95696306 -0.037269317 -0.28780669
37.264832 2.3389397 -2.3563724 0.99248439 -0.07642331 -0.095572956
37.309914 1.4161766 0.30788779 0.99379492 -0.1111839 0.0031302648
37.278606 0.89112389 -1.707534 0.9920069 -0.099702507 -0.077340722
36.875381 0.97134882 -4.3784375 0.98438996 -0.10052421 -0.1444695
37.380943 2.1974819 1.9915788 0.99399024 -0.09550675 0.053496342
37.55534 3.4822671 0.32644933 0.99727851 -0.073707096 0.0016916057
37.401684 3.9702156 -2.6992648 0.99122697 -0.08554969 -0.10074886
37.046078 3.2264435 -5.0393105 0.98464292 -0.089898527 -0.14965484
37.665352 5.1590605 -0.25746807 0.99773294 -0.062501498 -0.02495127
37.644627 6.8001842 2.8532119 0.99656892 -0.045375507 0.069219291
37.662712 6.7670455 -1.9009366 0.99719095 -0.048777509 -0.056842268
37.736378 7.3385711 0.67999852 0.99934757 -0.035106298 0.0084859375
37.432472 8.6606321 -4.7731023 0.98746371 -0.024516534 -0.15593106
37.531353 6.9521422 -3.6979775 0.99078196 -0.060742665 -0.1210842
37.725487 10.356561 -3.1535597 0.99338478 -0.030167507 -0.11079911
37.833427 10.210077 1.1976424 0.99967635 -0.024190446 0.0078799222
37.826614 10.809254 -1.2328578 0.99900377 -0.03112955 -0.031972859
37.47118 12.527449 -5.5833559 0.98691678 -0.028021269 -0.15877731
37.847813 12.726589 -1.8469368 0.99768645 -0.025623471 -0.062969767
37.721455 14.622061 -4.2527862 0.99282634 -0.028159326 -0.11620235
37.926403 16.335085 -1.8873819 0.9987362 -0.0086289281 -0.049513694
37.551132 16.18174 -5.7656145 0.98674589 -0.035476491 -0.15834755
37.834648 17.849838 -3.4780972 0.99620467 -0.00948931 -0.086522371
-35.469124 10.974371 11.704683 -0.61173558 -0.1906842 0.76773632
37.216568 16.654697 -7.5503178 0.97544724 -0.033412453 -0.2176839
37.573807 17.951149 -5.8195772 0.99009448 -0.017317388 -0.13933052
30.660179 26.097517 -23.521606 0.79273546 -0.10467739 -0.60051072
37.949024 19.229868 -1.3336287 0.99957687 -0.014431613 -0.025254091
37.988693 20.777103 0.82414067 0.99956357 -0.017879121 0.023515837
37.139187 19.069918 -8.1070337 0.97491932 -0.036973797 -0.21946578
37.656452 20.179359 -5.7230482 0.99205124 -0.045488629 -0.11732416
37.48737 20.622299 -7.0755854 0.98033476 -0.04158156 -0.19291121
38.018795 21.711464 -1.553275 0.99973398 -0.020527845 -0.010516009
38.108242 24.05015 -0.91789305 0.99943447 -0.033554956 -0.002187669
36.608685 22.211557 -10.884857 0.95503813 -0.046403542 -0.29282907
37.122631 21.721428 -8.7682056 0.97161335 -0.045025591 -0.23225029
37.740971 23.713364 -6.7136288 0.98151332 -0.017097579 -0.19062863
37.254196 24.362772 -8.8577585 0.97277999 -0.034369029 -0.22916767
37.859161 24.591518 -5.2333603 0.99172807 -0.011185605 -0.12786791
38.014046 25.285597 1.3209554 0.99857759 -0.013929904 0.051466689
37.246815 26.027403 -8.9756966 0.97480422 -0.016899921 -0.22242072
38.099194 26.154484 -4.1131382 0.99139315 0.01372001 -0.13019735
37.842087 27.689445 -5.1873693 0.99153584 0.040642843 -0.12330752
-39.896065 18.32205 -35.645142 -0.95432669 0.28509197 0.089348555
34.826553 25.488913 -16.297718 0.91668117 -0.041830197 -0.39742419
35.701481 26.120466 -14.244053 0.94064939 -0.036461052 -0.33741572
31.929024 26.350811 -21.820971 0.82702953 -0.11164267 -0.55096108
33.640972 19.943863 -17.963381 0.88608617 -0.092344508 -0.45422879
36.54657 27.787878 -11.734957 0.95711118 -0.10812701 -0.26878771
32.382462 28.290998 -21.581625 0.84338659 -0.11954286 -0.52384019
33.172794 26.570955 -19.708778 0.87498063 -0.082647502 -0.47705176
25.230028 -29.462156 22.352442 0.58728606 -0.80222058 -0.10741121
27.052084 -35.129967 -2.0439315 0.62436157 -0.77723253 -0.077988982
26.936085 -28.180695 23.506298 0.57718581 -0.80077666 -0.16004165
27.021254 -34.836296 -4.4491425 0.6142996 -0.77445769 -0.15116654
29.331175 -32.599514 0.15374082 0.87824935 -0.47791004 0.016737778
27.647167 -33.598202 -7.0069351 0.74985975 -0.62542373 -0.21576719
29.573864 -32.098747 -1.4156078 0.91120654 -0.40651658 -0.066684954
28.576347 -33.746323 -1.3700728 0.76423192 -0.64362115 -0.041246101
28.506975 -33.335949 -4.0793762 0.83192325 -0.53117406 -0.16049229
30.304775 -29.974281 -1.4739 0.94939315 -0.31026533 -0.048868585
29.980536 -30.396152 -3.7339571 0.92186427 -0.36092952 -0.14105378
28.594542 -31.089912 -8.4097672 0.75150502 -0.36153728 -0.55184323
30.530375 -28.597881 -3.9939277 0.93956774 -0.30766615 -0.15018018
29.103207 -30.681332 -7.2234573 0.89565188 -0.35961413 -0.26169717
34.191967 27.558699 -17.798361 0.88936931 -0.18020037 -0.42017871
31.4953 -25.821352 -3.2378066 0.94870991 -0.28992456 -0.12606871
29.789965 -27.130951 -8.6171083 0.8488124 -0.29096031 -0.44142923
31.274242 -26.922922 -1.1973236 0.95029318 -0.30526862 -0.061269898
30.615438 -27.149902 -5.9089074 0.93063664 -0.29133108 -0.22145338
40.186863 -20.539038 36.066677 0.69787467 -0.69725108 0.16374302
39.68203 -20.698776 38.080254 0.74693328 -0.6603846 0.077348471
32.26638 -23.812716 -1.7717575 0.9554494 -0.2883254 -0.063126162
40.417023 -19.678667 39.204536 0.73894387 -0.60439962 0.29776329
29.268351 -23.803686 -10.896149 0.76014501 -0.29591712 -0.57845706
31.21586 -24.111841 -7.2314467 0.91951901 -0.27660736 -0.27923647
40.722336 -18.28635 40.602375 0.78046209 -0.48667485 0.3924621
28.377281 -24.234371 -10.829909 0.6250388 -0.36091363 -0.69214731
41.93491 -17.336395 38.268044 0.91997927 -0.39095125 0.028201241
30.366844 -23.971052 -9.1408234 0.80538279 -0.24462995 -0.53992099
32.109806 -21.894348 -6.1291184 0.93532604 -0.27227345 -0.22590345
29.277376 -22.088314 -11.915337 0.87060928 -0.24712433 -0.42540461
30.866791 -22.962999 -9.1996002 0.84393185 -0.25109923 -0.47405496
32.831364 -21.262411 -3.4297428 0.95080405 -0.27582109 -0.14104737
28.518507 -23.013409 -11.985373 0.87904209 -0.2998122 -0.37067202
31.861792 -23.761757 -4.558486 0.94454229 -0.27979591 -0.17191303
30.104834 -21.450775 -10.797722 0.85588783 -0.26887107 -0.44177404
29.916451 -22.2806 -9.826827 0.80621868 -0.24728066 -0.53746045
31.891584 -20.962099 -7.967823 0.89607751 -0.25450048 -0.36369562
42.381851 -15.27005 39.363125 0.95359397 -0.22287557 0.20244743
33.403442 -19.095545 -3.6665409 0.96040428 -0.24074076 -0.14024101
42.106026 -14.924972 38.507111 0.51224464 0.022925515 -0.8585335
31.147423 -17.944082 -10.134783 0.75017095 -0.17143974 -0.63863283
31.78504 -19.183565 -9.4352369 0.83087063 -0.25923583 -0.49239284
32.754852 -19.279497 -6.5871129 0.93575239 -0.24984573 -0.24888669
33.618797 -17.022409 -5.2276287 0.9567557 -0.22199503 -0.18798055
32.42263 -17.007771 -9.4318371 0.89215326 -0.22923388 -0.38924837
34.282284 -14.983701 -4.0811825 0.95850897 -0.23594455 -0.15997081
34.013668 -16.56019 -3.143003 0.96668589 -0.22232053 -0.12685393
33.442158 -15.390426 -7.6003437 0.93643236 -0.2205992 -0.2728194
34.785969 -14.15183 -1.6154635 0.97275388 -0.2174339 -0.080450483
34.717064 -13.366096 -4.1388493 0.96428835 -0.21438695 -0.15551904
42.436775 -8.520443 39.164928 0.96368605 0.084158964 0.25342953
34.140545 -11.970447 -7.8190622 0.94403374 -0.19622108 -0.26513687
34.759193 -12.061737 -5.1851659 0.96268308 -0.19072509 -0.19200327
35.35133 -9.9597263 -3.9580755 0.96861339 -0.20146908 -0.14559658
35.298092 -11.661779 -1.620044 0.97554302 -0.20097043 -0.089031652
41.860786 -3.4216077 39.287113 0.90580404 0.14027275 0.39980316
41.995018 -4.0476336 38.126011 0.89021456 0.013212518 -0.45534983
41.170589 -2.6236911 37.383892 0.057799596 -0.12331531 -0.99068284
34.727566 -9.0931425 -7.7939091 0.9388203 -0.17662773 -0.29566711
35.155308 -9.5204821 -5.5329647 0.96066511 -0.19343175 -0.1992652
35.892117 -8.6328211 -2.3929021 0.9780907 -0.17754488 -0.10870316
