# .PCD v0.7 - Point Cloud Data file format
VERSION 0.7
FIELDS x y z normal_x normal_y normal_z
SIZE 4 4 4 4 4 4
TYPE F F F F F F
COUNT 1 1 1 1 1 1
WIDTH 721
HEIGHT 1
VIEWPOINT 0 0 0 1 0 0 0
POINTS 721
DATA ascii
-5.8671188 32.129478 31.765532 -0.27411351 0.18852407 0.94303787
-10.263272 33.875641 29.792814 -0.43535131 0.18512724 0.88102055
0.50407434 34.818542 32.508976 -0.073523365 0.17728369 0.98140961
-5.0262728 36.12648 31.205658 -0.24774091 0.19666396 0.94865578
-4.099947 34.382992 31.820608 -0.2172703 0.20391345 0.9545747
-0.37933844 37.299561 31.910185 -0.15153351 0.20167878 0.96765864
-4.5567942 38.696499 30.806107 -0.22787738 0.19442734 0.95408064
-11.04419 41.304558 27.974823 -0.46584734 0.27133051 0.84223866
-6.3968859 40.093479 29.97757 -0.28194222 0.19860305 0.93865079
-1.8822645 40.600552 31.008476 -0.16986543 0.19634782 0.96570873
-21.103676 -51.459278 -39.868633 0.34623599 -0.80376321 0.4838236
-4.3392982 -48.941628 -45.095158 0.14906015 -0.29993466 0.94224215
-34.843388 -52.02552 -30.443014 -0.11655729 -0.9903298 -0.075242043
-3.0693657 -47.99498 -44.99472 -0.034272231 -0.2656956 0.96344763
-13.900639 -47.807045 -42.571926 0.34385151 -0.51002586 0.7884413
-1.0692015 -45.57988 -46.089714 0.28584433 -0.36654618 0.88540214
-1.449567 -47.882679 -44.807739 -0.09143991 -0.27475959 0.95715505
-2.5997953 -46.664696 -44.718906 -0.037766237 -0.15592848 0.98704612
6.4674926 11.621764 37.0793 0.081259526 0.19525947 0.97737944
-9.9553461 -47.104221 -43.4631 0.18662778 -0.3232474 0.92772901
-11.485373 -46.978573 -43.094501 0.0078658229 -0.24658845 0.96908832
-28.651051 -50.29493 -32.811703 0.65861183 -0.36324632 0.65900117
-13.116098 -45.98571 -43.03709 0.29627958 -0.19120939 0.93576568
-17.507751 -46.606064 -41.218277 0.23968594 -0.34965199 0.90570086
-15.318229 -45.710598 -42.203991 0.29793355 -0.43979803 0.84723866
-18.885832 -45.031864 -40.943058 -0.040138111 -0.56313384 0.82539034
-3.5786521 -46.593323 -44.948662 -0.23502038 -0.11710081 0.96491075
-14.662458 -47.00436 -42.189255 0.11036149 -0.21812123 0.96966147
-28.627838 -48.278046 -32.399185 0.53032601 -0.63231707 0.56473833
-6.2960463 -46.383236 -43.932854 0.3352809 -0.35323223 0.87339205
-7.195632 -45.21035 -43.763767 0.082016937 -0.36540011 0.9272303
-15.241773 -45.110901 -41.360489 0.32714561 -0.41022792 0.85128659
-29.387878 -49.465355 -32.307201 0.65424699 -0.36975011 0.65973169
-4.8713069 -45.118126 -43.931042 0.39170405 -0.4422842 0.80681634
-10.956432 -43.821125 -42.697731 0.25022665 -0.29435018 0.92235821
-2.3571811 -44.910725 -44.464336 0.49478644 0.1123887 0.86171639
-8.3812037 -44.171494 -43.033787 0.14342651 -0.1594395 0.97673327
-8.9447508 -45.343945 -43.036037 0.13345957 -0.1157598 0.98427045
-13.693077 -44.887352 -42.073814 0.37191468 -0.54045087 0.75471342
-12.081132 -44.928783 -42.966274 0.19432972 -0.32241201 0.92643756
-17.813431 -45.367596 -41.088551 0.11022685 -0.40325108 0.90842646
-17.612896 -44.683941 -40.352287 0.18291217 -0.5023315 0.84510726
-41.352722 -51.930088 -18.074339 -0.19657484 -0.97746551 -0.076938182
-9.4146376 -44.288025 -43.154865 0.12545182 -0.16748466 0.97786027
-7.0986509 -43.125294 -43.330585 0.24053261 -0.17118362 0.95542675
-19.199928 -44.378113 -40.215893 0.33886087 -0.50964892 0.79084212
-13.378229 -43.488136 -41.408459 0.36639342 -0.23944992 0.89912152
-16.039488 -44.122837 -40.884911 0.2926541 -0.30799696 0.9052577
-12.116445 -42.478451 -41.761471 0.24204911 -0.40371099 0.88228661
-30.058081 -46.759727 -30.930784 0.10672963 -0.19922489 0.97412437
-4.3951573 -43.650242 -43.779087 0.26463526 -0.38796481 0.88286549
-16.990137 -43.043671 -40.041275 0.3403933 -0.39804539 0.85187572
-21.402374 -43.612267 -37.436928 0.52031064 -0.22164109 0.82471329
-7.4311109 -42.148331 -42.869221 0.15756671 -0.51603556 0.84195012
-9.9104462 -41.983631 -42.307816 0.21161932 -0.5490908 0.80852741
-13.838895 -41.81496 -40.384357 0.22705141 -0.76443422 0.60339695
-19.270168 -42.429062 -38.67231 0.47926256 -0.51536191 0.71042913
-15.386879 -42.150242 -40.564636 0.35012138 -0.48221305 0.80304766
4.0491505 -42.353512 -43.100086 -0.083701521 0.03833371 0.99575329
-4.8810782 -42.134056 -43.288536 0.12102497 -0.53514522 0.8360458
-19.992603 -43.27935 -38.114296 0.6674999 -0.2136537 0.71329933
-0.083335035 -42.003284 -43.258976 0.22207211 -0.20324078 0.95361269
-5.5160913 -41.157528 -42.188702 0.15562999 -0.43666953 0.88605815
-16.6229 -41.529945 -38.762211 0.32229713 -0.7189979 0.61576515
-18.047644 -41.872665 -38.960907 0.36035886 -0.63465935 0.68362927
-21.270145 -42.32756 -37.175087 0.48761985 -0.40435109 0.77377462
-23.595875 -42.298252 -35.196266 0.49641609 -0.55136287 0.67049974
-26.332539 -43.715424 -33.53886 0.64505559 -0.34302309 0.68281662
-27.087549 -42.586388 -32.258415 0.65122581 -0.3355768 0.68065643
5.5388598 -52.155144 -46.356834 -0.032550897 -0.90113175 0.43232149
1.8241651 -40.111336 -42.751644 0.048198264 -0.29497811 0.95428765
-20.956848 -41.190365 -36.191856 0.45856231 -0.60058731 0.6549927
3.5877621 -41.263599 -43.164822 -0.0099998023 -0.24912143 0.96842057
-2.9096179 -41.214569 -42.528008 0.094974726 -0.36922982 0.92447233
-8.4479704 -41.413628 -41.7006 0.21108255 -0.5291003 0.82188624
-24.288157 -41.862785 -34.073502 0.62421697 -0.10524286 0.77412993
-25.361593 -42.375519 -33.78299 0.6431514 -0.45165479 0.61835599
-31.173994 -43.925869 -28.611645 0.59068143 -0.62720251 0.50765389
6.4867468 -41.517532 -43.294811 -0.10362293 -0.19520845 0.9752723
-0.59751719 -39.54039 -42.399521 0.071639128 -0.21688876 0.97356415
-13.034889 -40.605221 -39.850956 0.33034605 -0.3734512 0.86683661
-21.78264 -41.299503 -35.211376 0.44382456 -0.50210327 0.74223459
-25.79253 -41.753223 -32.283642 0.65003121 -0.33227423 0.68341303
-27.587168 -42.18856 -31.250673 0.80702716 -0.10468019 0.58116192
-7.9117751 -39.56815 -41.19051 0.26384708 -0.2671341 0.92683554
-10.739393 -39.258156 -40.178677 0.286531 -0.30070376 0.90965778
-2.0337708 -39.757103 -42.486595 0.13514577 -0.18867709 0.97269553
-8.0325842 -37.901989 -40.739803 0.32671261 -0.2675696 0.9064576
-12.805449 -38.500656 -39.334095 0.36286259 -0.25986126 0.89487594
-14.495554 -40.393925 -39.093452 0.38738298 -0.46427196 0.79648352
-17.233822 -40.597359 -37.784706 0.37493041 -0.43843126 0.81682634
1.7016689 -37.537098 -42.124203 0.049526621 -0.21944918 0.97436601
-6.1357813 -39.255562 -41.649654 0.20348595 -0.24025765 0.94914156
4.5964761 -38.579906 -42.405231 0.019400975 -0.24245708 0.96996814
-4.3215513 -38.662521 -41.711823 0.16403237 -0.2250969 0.96042943
-4.0805573 -36.557262 -41.273148 0.17390843 -0.25713819 0.95059758
-19.287775 -38.615704 -36.147987 0.5353967 -0.20050651 0.82045573
-1.6364526 -37.523159 -41.988865 0.11478177 -0.23668738 0.964782
-16.594797 -36.445477 -36.862995 0.41117877 -0.26368767 0.87258285
-9.3433809 -37.39497 -39.941692 0.30139697 -0.23554584 0.92394698
-12.720965 -36.056263 -38.58704 0.3613556 -0.26393256 0.89429396
-18.218731 -37.422165 -36.451344 0.41928664 -0.23102482 0.87796718
-11.396164 -35.373116 -39.000725 0.37689644 -0.26138005 0.88861108
3.1802163 -36.380104 -41.952393 0.036826987 -0.24330869 0.96924961
-7.3036599 -35.68314 -40.388039 0.24873142 -0.2705473 0.9300198
-10.399148 -36.584274 -39.631886 0.28015497 -0.23391968 0.93101805
-1.1746449 -35.053623 -41.370686 0.12569922 -0.28440735 0.95042741
0.26147965 -36.024071 -41.690926 0.046466243 -0.24422292 0.96860516
-4.6918044 -35.135761 -40.755432 0.19491677 -0.28552181 0.9383415
-6.0928173 -34.511532 -40.102974 0.19065832 -0.27779683 0.94152975
4.5038705 -34.637119 -41.439293 -0.0069529628 -0.26933303 0.96302199
-9.3617792 -33.526951 -39.124878 0.21271443 -0.29038352 0.93296832
-13.818892 -34.04105 -37.624886 0.38543311 -0.33312348 0.8605057
0.29605901 -33.789932 -41.031216 0.073021747 -0.24209984 0.96749955
-12.339849 -34.150459 -38.092861 0.37041402 -0.314753 0.87391305
-10.18634 -34.387337 -39.171173 0.30918252 -0.28886592 0.90606987
-7.7823162 -33.591652 -39.47163 0.26591352 -0.26893878 0.92572242
47.688461 -51.324478 19.990774 0.76295751 -0.52849668 0.37227282
32.418152 13.495473 23.279114 0.73946023 0.1946272 0.64445233
38.79232 -50.658291 33.22747 0.70868486 -0.094248876 0.69920164
-37.810066 -42.27523 30.959486 0.3876538 -0.38254467 0.83868003
-43.45504 -43.246696 32.701805 0.19091716 -0.84702307 0.49608737
-33.453312 -39.708042 30.026478 -0.11361843 0.05978027 0.99172431
-35.943352 -42.069649 30.531368 0.32952845 -0.23082604 0.91549462
-40.618916 -41.641968 32.577591 0.38844419 -0.3305034 0.86016202
-43.545826 -41.416916 33.983433 0.41787544 -0.29561418 0.85906488
-37.031487 -38.727322 31.234701 0.38565323 0.066089436 0.92027378
-8.6368074 -50.400288 46.430733 -0.23709081 -0.05181241 0.97010487
-41.263134 -39.956524 33.18256 0.39206263 0.049855758 0.91858655
-40.219879 -38.560753 32.161495 0.15083943 0.50703156 0.8486262
4.2312503 20.052389 35.5452 0.062163617 0.19476001 0.97887903
-35.238518 -38.379078 30.269724 0.3255285 0.10703576 0.93945438
23.375439 -47.796833 43.433281 0.3778291 0.12133843 0.91789007
26.98868 -46.799217 41.53746 0.46930575 0.13881026 0.8720572
-36.236225 -35.237198 30.051559 0.28490132 0.30732381 0.90795559
-37.20771 -33.943272 29.337494 -0.076398797 0.59352785 0.80117905
19.457918 -44.988407 44.539764 0.32287881 0.15251268 0.93407124
22.531958 -44.203331 43.217094 0.37953901 0.14734365 0.91336733
-60.128666 -35.451389 42.950729 0.028227039 -0.35487935 0.93448585
-61.623207 -33.443661 43.672112 0.23705922 -0.11358875 0.96483183
17.081703 -41.140484 44.652554 0.27664161 0.16030763 0.94750768
14.565434 -39.185322 44.992844 0.22630164 0.16564058 0.9598701
6.3743477 -38.189114 45.9729 0.051893596 0.15324934 0.98682404
27.235546 -35.010849 39.294037 0.47145486 0.1640064 0.8665058
8.2551908 -37.158016 45.709515 0.099969931 0.16354467 0.98145765
16.332369 -36.951061 44.126907 0.25696933 0.16370213 0.95245385
7.534308 -32.938068 45.060959 0.082970008 0.16431649 0.982912
-64.179062 -23.91997 44.80191 0.45771408 0.029971994 0.88859409
-65.615707 -23.355055 44.988068 -0.2952801 -0.070861794 0.95277923
2.9070296 -20.946024 43.142437 -0.020480685 0.16788693 0.98559344
19.590017 -19.808512 40.011883 0.36114985 0.1697562 0.91692615
1.1494538 -19.462244 42.831654 -0.053452846 0.17281477 0.98350281
15.133667 -20.265219 41.565655 0.24009834 0.16897181 0.95592958
11.699594 -18.678007 41.988712 0.18022525 0.16526644 0.96964216
10.210622 -17.253462 42.044361 0.13799961 0.16914468 0.97588229
13.05431 -16.63446 41.403694 0.20240511 0.17508055 0.96352422
16.509956 -15.704291 40.254028 0.28119928 0.16864252 0.94471502
14.387815 -14.455185 40.694183 0.26133528 0.1649963 0.95104152
8.6524324 -14.441508 41.741127 0.13573775 0.18119323 0.97403502
-61.890133 -7.2599831 42.994293 0.22865589 0.19632934 0.95350468
-58.690887 -4.2665443 40.996212 0.7320919 -0.28301874 0.61963046
-2.4561291 -10.066525 40.81065 -0.12953365 0.18183909 0.97475922
-55.53178 -1.0795337 38.941284 0.70376158 -0.40387419 0.58447015
-56.998436 -1.6352203 40.177361 0.56091124 -0.062543936 0.82551003
-56.537453 0.13100381 39.926472 -0.084303483 0.55987018 0.82428038
-55.048321 0.70764112 39.260857 0.44948646 0.10249747 0.88738722
15.601955 -7.6902986 39.054428 0.27787429 0.18481731 0.94267088
4.7954316 -3.7928624 40.078003 0.026146647 0.18307213 0.98275173
15.332515 -4.9853606 38.605637 0.29318005 0.18760221 0.9374705
-53.37804 2.0601034 38.336281 0.37976941 0.14706782 0.91331613
18.055012 -5.5230279 37.799133 0.33717012 0.18810204 0.92246085
12.207687 -5.552928 39.51799 0.19677931 0.1791833 0.96393526
14.412763 -3.349581 38.579891 0.27268484 0.18284732 0.94456863
-49.727016 4.4739876 36.371586 0.43710729 0.0013242214 0.89940834
-30.677988 8.9990091 24.246552 -0.10588723 -0.67659384 0.72870344
-27.323277 10.001185 24.845526 0.1069166 -0.1627764 0.98085302
-31.491619 11.17774 26.289927 0.23106094 -0.53667188 0.8115381
-27.255451 13.923025 25.406355 0.33389571 -0.037738144 0.9418543
-33.294979 11.088428 26.738108 0.29400194 -0.69403875 0.65717053
-38.37299 10.232753 30.088236 0.57724619 -0.55715966 0.59695894
-40.136383 9.2975407 30.707172 0.52341193 -0.57615638 0.62776083
-40.131496 10.410584 31.332127 0.43177763 0.06758602 0.89944434
12.961974 1.0522302 38.026173 0.21715352 0.18172783 0.95907217
-37.382366 11.51933 29.981255 0.4516688 -0.062664919 0.88998228
-36.170399 13.331542 29.1078 0.12061101 0.5415386 0.83197886
3.6505253 12.303782 37.093018 0.017420981 0.1946646 0.98071522
1.5975077 12.785229 36.933472 -0.054514565 0.18630236 0.98097897
-0.54937458 12.573238 36.808449 -0.10044082 0.19352753 0.97593993
7.6035986 15.11548 36.26775 0.12368049 0.20224786 0.97149318
6.142467 15.656523 36.282921 0.076824315 0.20124215 0.97652423
15.004665 18.543459 33.855747 0.31167299 0.20117702 0.92864835
9.3197155 26.608463 33.666126 0.18960562 0.19586848 0.96212536
-0.79595298 29.94149 33.310455 -0.11055108 0.19861321 0.97382307
9.2150373 33.109673 32.388634 0.17326868 0.18481734 0.9673782
9.2770443 35.922356 31.790911 0.17585373 0.18968025 0.96596938
6.8687363 36.178276 32.130936 0.086326733 0.18876512 0.97822052
13.199303 37.744846 30.476625 0.28735644 0.19234917 0.93831128
7.363153 38.316654 31.648302 0.12874521 0.19307418 0.97270089
2.9995713 21.729427 35.191635 -0.041847002 0.19590512 0.97972953
-6.4142189 -44.177528 -43.192272 0.25401643 -0.15082441 0.9553678
10.286074 -39.222599 -42.153038 -0.14829554 -0.23089962 0.96161002
-5.8232117 -46.739983 46.530014 -0.185167 0.1449167 0.97196311
-34.947803 -42.537403 29.655924 0.0032414591 -0.31602713 0.9487446
-62.555889 -32.189877 44.017582 0.13883002 -0.14440653 0.97973108
21.608067 -51.620987 -43.171066 -0.27536607 -0.67660195 0.68292266
43.265331 -50.793381 -24.004869 -0.68521333 -0.61710739 0.38686076
39.67453 -48.130497 -27.580891 -0.74043357 -0.33602026 0.58210689
27.54388 -49.521923 -39.39856 -0.39637163 -0.30264276 0.86677384
43.852291 -49.089077 -21.611519 -0.82653761 -0.31087378 0.4692474
41.851868 -49.621384 -25.116611 -0.77807069 -0.38225704 0.49848324
19.266304 -51.722649 -43.993828 -0.24155912 -0.68477172 0.68755865
44.344959 -48.64212 -20.246214 -0.86326087 -0.30447051 0.40258953
19.067625 -49.049763 -42.701084 -0.2893756 -0.23714298 0.92737526
41.481415 -46.790543 -24.195335 -0.80389088 -0.23107342 0.54805523
3.3047209 -52.250233 -48.521019 -0.0029292547 -0.97867233 -0.2054067
44.301727 -47.194965 -19.451906 -0.86787117 -0.25335774 0.42732838
20.852396 -48.580879 -41.962482 -0.38442376 -0.23565309 0.8925727
1.7092409 -52.238804 -48.140064 -0.031763852 -0.99644816 -0.077989206
0.86053717 -52.082325 -48.764404 -0.21167077 -0.64794523 -0.73168468
19.5604 -47.370277 -42.23922 -0.33219045 -0.27442619 0.90240777
32.015026 17.076992 22.584404 0.74592459 0.20448518 0.63386291
22.662043 -46.556549 -41.17028 -0.67859149 -0.10661561 0.72673696
38.786774 -45.739197 -27.541983 -0.73780799 -0.20415236 0.64339811
18.474972 -46.537407 -42.62925 -0.21112473 -0.404643 0.88976985
24.778391 16.061817 29.532925 0.564421 0.20225438 0.80032623
24.310852 18.677486 29.112459 0.55712295 0.20153718 0.80560338
42.072182 -44.039959 -21.641912 -0.83047575 -0.30099058 0.46873748
37.216629 -43.956974 -28.964893 -0.71305794 -0.28582901 0.64019537
29.695444 17.223095 25.111256 0.68837154 0.20978127 0.69436044
26.933929 18.4625 27.216276 0.62216419 0.19514765 0.75817484
33.538799 -44.410614 -32.764492 -0.65866226 -0.23973008 0.71322757
32.768875 -43.790485 -33.754662 -0.61217827 -0.21689172 0.76039177
28.505468 19.685982 25.528654 0.6867553 0.19746827 0.69955242
14.641371 22.150301 33.19363 0.31755885 0.20056225 0.92678535
34.065388 -42.100853 -31.210278 -0.66752976 -0.33847025 0.66320574
26.695511 27.515512 25.063419 0.6631068 0.18604407 0.72503591
38.78524 -41.3759 -25.351269 -0.77158409 -0.29296026 0.56465232
31.390932 -43.216198 -34.153011 -0.55137694 -0.25929779 0.79293633
29.740431 -42.052891 -34.946297 -0.56154174 -0.27337354 0.78098512
22.027605 -42.832924 -40.049229 -0.45065516 -0.33610493 0.82700872
-32.942307 -46.199924 -27.673985 0.78339928 -0.4061566 0.47044915
-30.866001 12.020967 26.287773 0.30822688 -0.36675239 0.87777495
32.013889 -42.050156 -33.118546 -0.63584024 -0.33947691 0.69315416
41.094952 -41.627834 -22.126081 -0.84476477 -0.24755314 0.47443658
41.077824 -42.646259 -22.825533 -0.81459427 -0.28093934 0.50745374
36.4263 -41.74493 -28.375128 -0.71584737 -0.30022958 0.63041639
34.852558 -39.645527 -29.397285 -0.69541317 -0.22450918 0.68263906
32.68478 -40.242607 -31.669796 -0.66095322 -0.26289868 0.70286912
31.152828 -39.757072 -32.915234 -0.63001496 -0.26182202 0.73111582
25.919226 -40.501202 -36.763386 -0.5082683 -0.26522842 0.81933951
25.12406 -42.258118 -38.008606 -0.48179367 -0.25253958 0.83910584
39.752735 -40.139236 -23.460957 -0.78195935 -0.2482484 0.57176238
27.366722 -39.705555 -35.754353 -0.52811968 -0.24127652 0.81417143
18.252934 -41.643246 -40.817265 -0.30591056 -0.27381584 0.91183537
-18.34519 -51.859173 -42.269768 0.29609969 -0.72966909 0.61636686
29.842169 -39.135693 -33.844547 -0.57982737 -0.27111104 0.76830912
23.744898 -38.822083 -37.615971 -0.43847921 -0.24369791 0.86507064
32.543888 -37.609432 -31.045588 -0.64979571 -0.22542845 0.72591162
27.236387 -36.503757 -34.898438 -0.55260766 -0.21483143 0.80527771
38.043144 -38.333622 -24.997421 -0.78997314 -0.23398922 0.56673759
39.170181 -36.708061 -22.838537 -0.78377032 -0.22919247 0.57721317
34.022541 -36.188866 -29.20611 -0.68854398 -0.21311808 0.6931724
40.848461 -35.043259 -19.396185 -0.87905538 -0.13545075 0.45707181
29.552561 -37.232117 -33.386986 -0.6037271 -0.23033907 0.76318908
31.914539 -35.096371 -30.765369 -0.64755857 -0.19095485 0.73770189
22.822071 -35.473106 -37.179237 -0.41775069 -0.21841103 0.88191891
25.448601 -36.775654 -36.129498 -0.48796219 -0.22093609 0.84444076
37.186352 -34.500057 -24.515055 -0.80936664 -0.14924094 0.56802523
39.677719 -34.717251 -21.322529 -0.83810169 -0.18100202 0.51461047
35.071228 -35.095875 -27.729321 -0.74660838 -0.21757546 0.62867868
30.250238 -33.684299 -31.926701 -0.61586285 -0.16778168 0.76978064
36.850819 -36.641865 -26.013548 -0.78260231 -0.2255532 0.5802235
33.008881 -33.774632 -29.480087 -0.68881941 -0.1528396 0.70863801
28.533503 -34.99102 -33.509804 -0.58970857 -0.19003387 0.78494012
35.630428 -34.050014 -26.465576 -0.74968135 -0.15073276 0.64440483
38.74308 -34.518364 -22.591076 -0.79718763 -0.12650184 0.59032965
33.784267 -32.250179 -28.543484 -0.6905722 -0.17638066 0.70142698
31.957911 -32.238342 -30.209703 -0.65244073 -0.16830155 0.73891521
26.967245 -32.539696 -34.151752 -0.53301984 -0.19614011 0.82305467
8.1855583 -50.615303 47.729134 0.067283049 -0.10651275 0.99203223
-45.735085 -51.181068 1.173226 -0.97837371 -0.1847842 -0.092950188
-6.2649975 -51.790901 46.351234 -0.072304837 -0.88809437 0.45393881
-14.268594 -51.96386 44.273537 -0.13096917 -0.85992038 0.49333969
-13.184105 -50.812031 45.028778 -0.29478613 -0.10648499 0.9496116
-42.232849 -51.482399 16.87318 -0.36567879 -0.91944975 0.14453812
-34.267139 -49.117279 30.83514 -0.73519623 0.17645779 0.65448391
-36.050564 -49.462616 28.936272 -0.77745831 0.04928498 0.62700045
-23.09923 -47.846569 40.141785 -0.5047195 0.13841392 0.85211498
-34.151119 -46.772476 30.274824 -0.72220647 0.11347774 0.68230534
-40.896122 -46.649277 21.232033 -0.85743737 -0.35197797 0.37538323
-39.408176 -47.158695 23.857822 -0.86770254 -0.10151988 0.48660663
-41.235828 -45.183792 25.015764 -0.33273181 -0.93670404 0.10897233
-39.862427 -45.800507 24.694193 -0.53461331 -0.75918633 0.37124741
-33.70525 -42.789967 29.997725 -0.52183622 0.084231839 0.84887689
-34.653934 -44.827755 29.506105 -0.62124377 0.062395249 0.78112936
-32.561035 -36.189926 29.799677 -0.34189662 0.19623144 0.91902125
-32.4739 -33.232983 29.008272 -0.5236634 0.26987216 0.80805051
-59.172817 -41.357346 33.868774 -0.29897815 -0.93501341 0.19068818
-60.109871 -41.511147 33.524288 -0.34018746 -0.92076242 0.1909685
-28.328781 -29.693954 31.918018 -0.68905866 0.16467257 0.70574868
-58.646988 -41.173248 36.829517 -0.30327174 -0.90054744 0.31151322
-61.684399 -39.992939 36.573929 -0.45099631 -0.84418494 0.28974819
-31.632271 -24.363155 26.924118 -0.77006978 0.18377513 0.61091667
-27.941259 -25.375706 31.210964 -0.69897217 0.16344085 0.69622195
-33.640877 -25.20377 24.453512 -0.81340855 0.19614936 0.54762393
-15.55664 -21.946831 39.051949 -0.43585733 0.19483329 0.87867415
-25.835917 -24.678566 33.03714 -0.65800244 0.171129 0.73331285
-60.386696 -37.559792 41.845779 -0.23693816 -0.64725667 0.72451299
-33.712688 -23.184977 23.773939 -0.81416965 0.17231871 0.55446732
-62.997295 -36.261257 41.444828 -0.54817837 -0.63553852 0.54368317
-32.531483 -18.908022 24.067547 -0.80656445 0.19225618 0.55900925
-66.071831 -33.864189 40.642956 -0.70714658 -0.50329703 0.49662441
-65.002937 -33.247707 42.175789 -0.61001134 -0.46481141 0.64174485
-64.254433 -31.648689 43.772327 -0.41634133 -0.33176982 0.8465156
-67.081238 -30.903591 41.64241 -0.7272011 -0.41949201 0.54332769
-66.674026 -29.43564 43.148273 -0.6336078 -0.30514899 0.71093267
-68.251373 -29.260023 41.009071 -0.81219369 -0.32538337 0.48421794
-67.348839 -23.005877 43.966614 -0.59039217 -0.08756122 0.80235285
-67.46846 -25.957996 43.525047 -0.70298189 -0.1784267 0.68846238
-12.827875 -1.6001772 36.187744 -0.38262665 0.19016226 0.90412122
-68.400459 -22.670019 43.013733 -0.74932814 -0.056131668 0.65981555
-16.72316 0.23870698 33.698826 -0.49169752 0.17532031 0.85293394
-29.40177 1.0743985 21.77317 -0.80631912 0.11837406 0.57951456
-30.905153 3.7346563 19.052879 -0.83652502 -0.12832718 0.53268939
-30.595907 5.2752814 21.183874 -0.60940105 -0.57140923 0.54965621
-28.748568 4.8409486 22.389666 -0.63125509 -0.21172553 0.74611622
-32.550583 5.9935455 19.106955 -0.70982796 -0.59558421 0.37606335
-29.543215 5.9833188 22.620516 -0.3709487 -0.50003964 0.78253275
-30.52599 6.9481072 22.468418 -0.46490031 -0.61634618 0.63559824
-33.145653 7.4971437 20.975624 -0.5018245 -0.75938994 0.41412449
-0.67059356 24.502094 34.397606 -0.10976418 0.19408546 0.97482437
-0.54920304 31.698792 32.945194 -0.08671011 0.18705505 0.97851509
-17.623726 -52.275757 -42.914349 0.21801747 -0.89113462 0.39792874
24.966002 -20.957014 37.821159 0.46809584 0.17240031 0.86669737
4.7546153 -51.324707 47.601372 0.0045139091 -0.55593604 0.83121282
-15.849469 -47.410381 -42.624931 0.16443931 -0.4148331 0.89491516
-37.216965 -43.531322 29.462679 0.21144699 -0.7603901 0.61408234
3.2346277 -52.086014 -46.409645 0.011042359 -0.93353844 0.35830721
-32.367062 19.438221 4.3085451 -0.9623664 0.20294984 0.18072699
50.105366 -51.393139 1.1509831 -0.5361321 -0.84360158 -0.029979073
49.556332 -50.498093 1.8028126 -0.83851856 -0.54425883 -0.025865491
49.021835 -49.999176 -5.6895142 -0.89123476 -0.44456947 0.089770839
49.59816 -50.477871 -4.0069065 -0.89153957 -0.45288771 0.0070599429
48.571087 -48.918922 -0.1677895 -0.89035398 -0.45525721 -0.0032525854
48.33807 -47.827389 0.76766694 -0.94222033 -0.33497551 0.0035076388
48.429943 -47.964386 -4.9408755 -0.93053824 -0.35373223 0.094721444
46.447292 -48.030792 -13.87943 -0.85572839 -0.2997869 0.42173067
46.441986 -49.382233 -15.922716 -0.88005167 -0.36023617 0.30941698
48.511318 -48.157864 -2.3320301 -0.94361544 -0.32893291 -0.037323482
37.808239 -50.723042 -31.21508 -0.66370028 -0.42551231 0.61517572
35.304249 -49.091881 -32.831223 -0.63523293 -0.36428756 0.68100935
31.922873 -50.958691 -36.784107 -0.54440606 -0.51491416 0.66218239
48.038803 -48.11607 -6.7593136 -0.90808964 -0.37869263 0.17878819
46.177132 -46.333656 -14.528285 -0.8978864 -0.17692168 0.40311152
48.680542 -48.793434 4.614821 -0.91309452 -0.40760118 -0.010939187
48.278976 -47.902309 3.6155772 -0.93061703 -0.36523217 -0.023610266
47.962418 -46.665173 -0.92375565 -0.96913373 -0.24519691 -0.025656458
47.637444 -46.100105 -6.135488 -0.96326262 -0.24792951 0.1032284
47.507538 -45.960964 -9.3595095 -0.94953924 -0.29414937 -0.10886383
45.660088 -47.343033 -15.966801 -0.91492188 -0.2496379 0.31717318
40.198864 -46.989014 -26.234711 -0.80372834 -0.22881672 0.54923916
47.870518 -46.558273 2.3644602 -0.95606071 -0.28913024 -0.048493776
48.171131 -46.678612 -2.6716809 -0.947869 -0.31688735 -0.03356659
43.14661 -46.318981 -21.332161 -0.8556717 -0.26744834 0.44305456
33.587742 -49.931572 -34.793819 -0.59595388 -0.41289371 0.68873632
27.490389 -52.592957 -41.02549 -0.34278297 -0.75138652 0.56384224
44.936951 -47.567684 -18.541105 -0.89720881 -0.27894714 0.34235188
42.266533 -47.019127 -23.191366 -0.82405639 -0.23985402 0.51322615
46.969349 -44.039757 -6.4238896 -0.95171124 -0.29437912 0.087101713
47.516926 -44.792801 0.099944949 -0.96920562 -0.24289882 -0.040503763
47.879951 -44.332497 -3.7103052 -0.95802617 -0.27194238 0.090737335
45.452831 -45.470978 -15.527276 -0.89030588 -0.25510091 0.37719885
47.856079 -46.012547 -4.0820737 -0.97501755 -0.21981347 0.031981532
37.444424 -46.428532 -29.279263 -0.72495705 -0.23185666 0.64859837
47.379848 -44.657135 -5.1525049 -0.93883395 -0.26068953 0.22501488
39.866173 -44.841572 -26.262272 -0.77527803 -0.21324177 0.59453505
42.100063 -45.158661 -22.797428 -0.82242233 -0.28893769 0.49003729
40.960018 -44.302299 -23.77059 -0.82146293 -0.32902449 0.46576986
40.430618 -44.764202 -25.048697 -0.80874288 -0.29203004 0.51054215
34.714993 -46.203289 -32.025242 -0.68727547 -0.27022177 0.67426461
46.315414 -41.748672 -7.049294 -0.96138191 -0.25481704 0.10398613
44.240852 -44.806591 -18.082403 -0.88859349 -0.27671701 0.3658269
46.249893 -42.20446 -9.0137358 -0.94560534 -0.28230244 0.16166599
44.973419 -42.04472 -13.6622 -0.89879364 -0.30602831 0.31387374
44.590069 -43.382301 -15.923316 -0.89392072 -0.29551432 0.33701184
42.338989 -42.07338 -20.049309 -0.85188282 -0.27465227 0.44593924
38.3428 -43.202663 -27.296982 -0.73790443 -0.34612599 0.579391
28.847816 -47.309628 -37.223869 -0.50205696 -0.318946 0.8038733
46.206902 -40.339066 -4.6095123 -0.96185267 -0.25794563 0.091123596
45.974209 -42.770191 -11.221255 -0.90581989 -0.37477207 0.19757555
45.298397 -40.751472 -11.201998 -0.9371019 -0.27069864 0.22036844
42.791027 -40.811172 -18.293356 -0.87863863 -0.2672148 0.39571503
43.720833 -40.867886 -16.162725 -0.90258414 -0.26236865 0.34132764
30.128271 -43.34996 -35.152168 -0.52139443 -0.26135674 0.81230563
43.929161 -39.124691 -14.163692 -0.92133802 -0.22487484 0.31712389
44.689648 -39.748161 -12.756603 -0.93062896 -0.24691518 0.27011606
41.896439 -39.28207 -19.374294 -0.87181133 -0.24198903 0.42589465
40.258316 -38.424858 -22.162971 -0.82192242 -0.23119445 0.5205695
36.537914 -38.635963 -27.321524 -0.75181812 -0.21959029 0.62173116
45.494057 -37.572857 -4.8983622 -0.97373188 -0.21739851 0.067706242
44.786343 -38.033382 -10.258835 -0.94687629 -0.24811074 0.20461272
43.113319 -38.011322 -16.026091 -0.90080065 -0.21851121 0.3752481
45.267117 -37.840157 -7.4891629 -0.959149 -0.24459606 0.14214779
41.5215 -36.820469 -18.707357 -0.88164026 -0.20642476 0.42438099
44.164356 -35.379745 -10.118044 -0.94964451 -0.24637933 0.19357817
43.699131 -36.314747 -12.925416 -0.94083148 -0.23174924 0.24724182
42.237591 -35.411991 -16.541716 -0.90760452 -0.16989513 0.38391364
45.084381 -35.450623 -4.8433781 -0.95865077 -0.26179561 0.11158706
43.2113 -35.828804 -14.420856 -0.92727613 -0.20543727 0.31297687
41.242477 -34.008274 -18.243696 -0.90056437 -0.10514898 0.42181459
38.546345 -36.420918 -23.701792 -0.77858466 -0.23925422 0.58014083
-61.853283 -7.5666571 33.446377 0.72704589 -0.57365036 -0.37726578
43.312687 -33.552502 -11.614418 -0.98250395 0.013123974 0.18577857
44.344284 -34.382191 -7.3669372 -0.94645524 -0.28707337 0.14768654
44.489998 -32.80542 -1.4000763 -0.96308303 -0.26809773 0.024384918
43.68346 -33.082394 -9.3808403 -0.98886448 -0.13984308 0.050901361
40.909847 -33.334267 -19.016708 -0.88148987 -0.16267559 0.44329697
21.851553 -51.956802 43.797325 0.080270283 -0.80440575 0.58863229
44.187107 -32.403992 -3.9701567 -0.94620049 -0.30611333 0.10487727
21.93302 -50.356701 44.241211 0.36496109 -0.06087935 0.92903018
-14.940847 -51.981915 43.33593 0.002956135 -0.9947688 -0.10210965
-16.388836 -52.036537 42.97942 -0.122911 -0.9503538 0.28586787
-18.448891 -51.23988 42.846329 -0.42015043 -0.2811662 0.86279732
-20.487902 -51.555641 41.583061 -0.42742923 -0.44285685 0.78815103
-22.090837 -50.652203 41.07365 -0.49364668 -0.10447858 0.86336392
-24.187328 -50.649963 39.764927 -0.5408904 -0.1296739 0.83103687
-27.24906 -50.832794 37.709469 -0.58719051 -0.17195421 0.79097354
-29.203569 -51.272301 35.903679 -0.46680003 -0.83791292 0.28284213
-30.085472 -50.127411 35.427238 -0.64697796 0.068743601 0.75940371
-30.32074 -51.075878 34.914619 -0.32728916 -0.85938352 0.39286366
-41.698566 -50.532894 19.881977 -0.90487516 -0.1392194 0.40226701
-39.793087 -50.001705 23.596443 -0.86657596 0.0030793101 0.49903581
-44.486725 -50.298126 12.030838 -0.95744604 -0.15531322 0.24325871
-40.718517 -48.500458 21.404474 -0.90947723 0.04533311 0.41327503
-44.60593 -48.605076 9.9681435 -0.96995336 0.15123229 0.19057596
-42.471706 -44.25745 15.153419 -0.99792498 0.023293426 0.060027208
-44.633018 -42.906174 2.4002752 -0.9824034 0.17626859 0.061748933
-42.420654 -41.846027 13.621747 -0.99418002 0.094227895 0.052222632
-42.937473 -34.265842 3.7311518 -0.98384947 0.15040749 0.097045459
-58.112553 -42.628098 31.156635 -0.28702959 -0.9423902 0.17179847
-62.519718 -40.738804 31.059433 -0.5111742 -0.85905898 0.026807414
-61.60807 -40.772697 33.449669 -0.44559348 -0.87576932 0.18567333
-63.329792 -39.847095 33.238945 -0.54627788 -0.81945163 0.17343453
-61.836491 -38.783798 39.047791 -0.41698858 -0.76657617 0.48834577
-63.599773 -38.113113 38.076675 -0.54444253 -0.74341881 0.38847241
-65.205452 -38.474857 33.011158 -0.66599452 -0.73195881 0.14383224
-36.908894 -24.210283 18.458729 -0.87841147 0.19512385 0.43625671
-64.209846 -38.663399 35.435066 -0.57915461 -0.77822375 0.24279141
-38.142471 -24.287647 15.863789 -0.90301836 0.1848294 0.3878091
-37.681641 -19.83474 14.770561 -0.9153859 0.17731205 0.36142653
-67.155151 -36.42791 33.432419 -0.7501393 -0.64705992 0.13639805
-68.317398 -35.026588 31.587486 -0.81175572 -0.57367074 -0.10933668
-65.430687 -36.902584 37.665047 -0.68711972 -0.66128761 0.30094054
-69.178215 -33.706299 33.621536 -0.83049142 -0.52635378 0.1823066
-66.33889 -35.51355 38.194504 -0.73665696 -0.55897754 0.38063195
-68.594727 -32.359989 37.525021 -0.8236438 -0.43774557 0.3605409
-70.335487 -31.404959 33.311981 -0.92241096 -0.38318053 0.048277635
-69.820145 -30.106131 37.110397 -0.86919576 -0.35052225 0.34875914
-71.249596 -27.390068 31.492834 -0.95597398 -0.2305671 -0.18152836
-69.391365 -27.178974 40.352139 -0.85409027 -0.23833989 0.46230292
-71.210266 -28.496561 34.932568 -0.94027561 -0.30613607 0.14887103
-34.71199 -9.1474886 16.390049 -0.89448798 0.18540108 0.4068388
-69.45224 -23.889435 41.3568 -0.84671342 -0.11493426 0.51948678
-70.819229 -26.617043 37.335098 -0.91632795 -0.21045229 0.34066546
-30.154701 -45.144547 -30.520683 0.37898767 -0.55923545 0.7373088
-71.320923 -23.319651 37.477379 -0.94666076 -0.11465465 0.30114409
-36.333012 -2.3762541 7.3237395 -0.9597531 0.19533099 0.20179151
-70.50161 -24.323992 39.196148 -0.90233308 -0.12581857 0.41226774
-72.347404 -22.448421 34.010731 -0.98604554 -0.086499363 0.14223987
-70.549316 -20.588106 39.656075 -0.90496695 -0.0184259 0.42508256
-71.992653 -20.968077 36.119442 -0.96167874 -0.014837701 0.2737771
-32.364292 -1.0032489 17.605509 -0.8751452 0.20099252 0.44013953
-31.743082 1.4821531 17.808449 -0.89004916 0.13859816 0.43428454
-32.870304 1.0952359 15.575139 -0.90243953 0.16249576 0.39899626
-71.29818 -18.786505 37.856499 -0.92738831 0.05313145 0.37030798
-31.678263 3.1343541 17.569883 -0.90258741 -0.18265338 0.38983822
-33.33223 2.7395914 13.793099 -0.93929368 0.098336272 0.32872069
-33.936119 6.4278669 14.52233 -0.83931196 -0.54021519 0.061016258
-33.737888 5.1580262 11.880708 -0.98484588 -0.1030391 0.1395043
34.532246 -43.933968 -31.895235 -0.6849826 -0.23638354 0.68914562
31.933052 -44.866482 -33.986946 -0.61331695 -0.19478519 0.76544178
14.949807 -41.633984 -42.339977 -0.28544164 -0.18005081 0.94133139
-17.668989 -12.158535 35.943787 -0.47367141 0.18935812 0.86010396
-43.319683 -51.155807 -16.520554 -0.92958766 -0.17646477 -0.32361537
-24.645796 -40.856724 -34.15369 0.561876 -0.41709107 0.71437418
40.699646 -38.231876 -21.037052 -0.8668294 -0.22730081 0.4437806
-38.107098 -49.322231 26.013096 -0.8186574 0.017277036 0.57402229
-32.502529 -7.1582103 19.860493 -0.84953415 0.18461169 0.49417633
-55.386883 5.5811005 21.88402 -0.16326338 -0.30776078 -0.93735176
48.371262 -49.60392 8.5598087 -0.9961105 -0.088018604 0.0040730829
49.743473 -51.552132 -8.462883 -0.69688952 -0.71501851 0.05562022
50.218861 -51.691177 -9.0468006 -0.21648613 -0.95946968 0.18042088
40.936348 -50.308704 25.232584 -0.76952195 -0.43192536 -0.47040036
44.220322 -50.446449 20.19482 -0.70843035 -0.55495018 -0.43606964
49.035145 -50.587528 -9.5118952 -0.9192847 -0.39052647 0.049037542
49.342014 -51.612221 -10.65702 -0.7148155 -0.67977798 0.16413622
43.216412 -50.040611 21.409035 -0.79309189 -0.40420988 -0.45565298
45.54689 -50.06889 16.974869 -0.8113693 -0.48759556 -0.32238251
42.60006 -50.586205 23.316967 -0.68515289 -0.56119472 -0.46435553
48.538433 -51.765137 -16.344007 -0.39132875 -0.90306878 0.17699887
46.478058 -51.75486 -19.819904 -0.42862871 -0.87887406 0.20942248
48.607895 -51.895355 -18.025084 0.29815117 -0.95295328 -0.05464365
48.443279 -52.011192 -19.225264 0.3725009 -0.90307307 -0.21378057
47.178547 -51.256538 -17.103083 -0.68923968 -0.65958482 0.29982767
39.923256 -48.016865 25.209221 -0.8768639 -0.28401661 -0.38787147
44.196075 -48.365902 18.297562 -0.86653531 -0.29320914 -0.40391204
49.194492 -47.603928 2.9781978 -0.98308438 -0.18257234 0.014577428
49.542469 -48.395725 -1.0293545 -0.98688793 -0.16090477 0.012721855
48.275188 -50.272694 -11.849816 -0.89488798 -0.32383439 0.3070941
47.13895 -50.837269 -15.840388 -0.73569602 -0.60609245 0.30232984
46.169056 -51.900505 -21.145004 -0.40019411 -0.89430988 0.20013638
47.155495 -51.943436 -22.230452 0.38167509 -0.9058193 -0.18388957
41.483845 -48.535793 22.997105 -0.78495294 -0.33340189 -0.52219921
49.260033 -47.307415 -3.1918745 -0.98594588 -0.15993696 0.048279744
41.238033 -47.454102 23.113621 -0.82488531 -0.12814589 -0.55058402
44.354214 -46.829563 17.62846 -0.88929039 -0.10257043 -0.44569275
43.069981 -47.408092 20.353107 -0.84348297 -0.21702807 -0.49136063
49.307812 -47.237095 1.4039516 -0.98313677 -0.1629072 -0.083085679
45.492908 -49.268002 -18.213491 -0.85592574 -0.37003043 0.3612045
49.265209 -46.698261 -1.0682095 -0.99381304 -0.10990054 0.016049739
48.794205 -48.967968 -10.127743 -0.94239402 -0.28358868 0.17740032
47.75771 -48.515984 -12.667019 -0.86914045 -0.27654371 0.41002268
45.665478 -50.551826 -19.23818 -0.7688868 -0.51346374 0.38100943
-28.840828 -43.406879 -29.536839 0.69369334 -0.29900894 0.65527338
47.73341 -47.111805 -11.228737 -0.88151306 -0.3164368 0.35043186
-14.748529 -38.600758 -38.392845 0.43266311 -0.25386971 0.86507386
46.879677 -46.859108 -13.086323 -0.88458484 -0.23105733 0.40511981
47.285801 -45.432125 -10.956598 -0.90674376 -0.35754657 0.22355369
-34.074612 -50.84446 31.402668 -0.69199717 -0.45743003 0.558478
46.407845 -44.54586 -12.849597 -0.88637763 -0.3340309 0.320559
45.495655 -44.333492 -14.509183 -0.86488622 -0.31746113 0.38883185
-43.113174 -51.60569 14.191043 -0.4588331 -0.87075418 0.17680293
32.70562 -52.198524 -38.414917 0.19503418 -0.98066652 -0.015965141
31.117907 -52.28867 -39.321758 0.36208564 -0.8266536 -0.43074116
46.104969 -39.562885 -2.9961889 -0.96195447 -0.27150247 0.03049466
45.729137 -40.128906 -8.3762197 -0.94925696 -0.26389927 0.17108038
45.201801 -35.403431 -2.4143548 -0.96968174 -0.24124309 0.038976062
-31.749882 -51.628139 32.639282 -0.23263802 -0.942572 0.2396615
-33.905701 -51.667191 30.058552 0.042570781 -0.99878758 0.024719071
-36.072144 -51.474724 27.983799 -0.45564947 -0.80825198 0.37297755
-16.844849 -52.063984 -44.17485 -0.114538 -0.91314614 -0.39121002
-43.249275 -50.099167 16.086298 -0.94282341 -0.054456003 0.32881391
-38.542324 -46.739346 25.52137 -0.72062504 -0.31247136 0.61891943
-43.645157 -51.44471 11.993046 -0.66107243 -0.73876345 0.13119398
-44.961426 -50.842037 9.1780901 -0.93953055 -0.2816264 0.19485611
-45.627087 -50.322353 6.0905595 -0.97483283 0.1828472 0.12754546
-41.947205 -46.118252 18.499123 -0.89787143 -0.38512874 0.21331395
-41.608791 -45.771397 21.459412 -0.57122391 -0.80131632 0.17775096
-45.343525 -51.86618 -1.920879 -0.89374042 -0.44782758 -0.026050458
-45.722221 -50.84235 -5.2162232 -0.95425731 -0.29140821 -0.066889845
-42.190762 -50.875992 -19.071318 -0.88341999 -0.27745482 -0.37760827
-45.756939 -49.214344 -3.7356 -0.996593 0.054232311 -0.062138945
-40.453697 -49.5331 -22.546135 -0.87934333 0.091685474 -0.46727848
-42.508938 -48.664082 -17.622303 -0.91591114 0.14786845 -0.37315115
-43.232578 -45.644855 -13.871164 -0.9480955 0.15491645 -0.2776975
-41.36179 -44.928692 -18.888254 -0.90696102 0.15471292 -0.39177233
-43.994343 -39.931664 3.5384805 -0.98030901 0.1747414 0.091977015
-41.325893 -39.767662 -16.655687 -0.92548978 0.16284992 -0.34197754
-60.484684 -41.871616 30.178492 -0.41387564 -0.90877658 0.053217642
-42.886032 -39.706448 -11.652295 -0.95277202 0.18526323 -0.24063061
-42.719639 -36.126877 -9.1269398 -0.96821141 0.17291072 -0.18074451
-41.479759 -35.483013 -13.791157 -0.93955475 0.16930571 -0.29761139
-64.007019 -39.733891 30.483593 -0.64141184 -0.76588166 -0.04490082
-64.313896 -38.676327 28.482965 -0.66993237 -0.58451807 -0.4577437
-65.659355 -38.143333 30.692158 -0.75334281 -0.63210875 -0.18141985
-36.519749 -33.158936 -24.236837 -0.84991336 0.17272994 -0.49780691
-38.70644 -33.594486 -20.195036 -0.89060384 0.17705296 -0.41889983
-41.943005 -31.621071 -9.1407261 -0.96647251 0.19026618 -0.17242283
-40.175735 -27.362978 -13.152349 -0.95046967 0.1890875 -0.24668472
-69.583466 -31.452002 30.975471 -0.88016844 -0.38652277 -0.27550611
-36.540825 8.7627764 20.933201 -0.14960988 -0.98827386 -0.030523632
-37.369801 9.7721815 15.679397 -0.60640448 -0.74169916 -0.28662848
-31.439905 21.224131 6.6267977 -0.95285672 0.19570307 0.23187155
-30.516344 23.915028 -10.77169 -0.94112247 0.21142426 -0.26379585
-27.616049 32.612801 -13.931023 -0.90326083 0.19480905 -0.38232082
-42.408199 -51.765659 -13.923472 -0.26984459 -0.96175534 -0.04701576
-48.61898 -44.444382 28.941919 -0.17186682 -0.97790235 0.11903308
47.074215 -44.554874 -9.7538996 -0.90996587 -0.40997764 0.062292941
47.028896 -43.200043 -4.3865104 -0.94414246 -0.30920953 0.11394885
-45.170822 -45.074638 25.182243 -0.040538449 -0.99821991 0.043746084
-71.79805 -26.862101 33.906677 -0.96940082 -0.18881908 0.1568739
-9.984786 -51.859215 45.58316 -0.20641369 -0.645558 0.73528779
-20.555565 -51.685993 -42.863815 -0.34909332 -0.71625525 -0.60424519
49.033379 -51.899151 14.286728 0.24801737 -0.94528568 0.21194895
24.197418 -49.793633 39.441078 -0.39963979 -0.28456345 -0.87138492
48.918106 -51.843388 12.486327 -0.37485504 -0.91962117 -0.11739106
48.821194 -51.424629 10.58188 -0.63708729 -0.74049783 -0.21396895
50.784382 -51.792835 3.9848342 -0.12786853 -0.99164927 0.016775211
27.526783 -47.099022 37.286545 -0.53289199 -0.2090077 -0.81996459
48.876518 -50.985054 8.5688086 -0.78547484 -0.61662495 -0.052942235
-39.939655 -51.850471 -21.029333 -0.26806948 -0.94998348 -0.16021922
49.825035 -51.409786 5.2568421 -0.60249674 -0.79563189 -0.062989704
49.172298 -49.860394 3.3234835 -0.90757108 -0.41876662 -0.030811137
48.3381 -49.22506 6.9990797 -0.99998945 -0.0044766287 -0.001081317
47.733562 -47.845234 -8.2255106 -0.96601498 -0.25396714 0.048122354
48.580063 -48.054394 6.8179183 -0.99072087 -0.041642293 -0.12937564
-3.3026958 39.555294 -32.72628 -0.21946639 0.20220935 -0.95443481
48.626064 -48.99789 -7.2519698 -0.89421695 -0.44426417 0.05482183
-43.212887 -44.986084 24.715548 -0.0017757183 -0.99532437 0.096572548
-48.007576 -44.869156 25.711071 -0.11630671 -0.99320656 0.0036630351
-47.168518 -44.77808 22.374325 -0.15467425 -0.97974855 -0.12715606
-52.166187 -44.226326 28.224665 -0.081571996 -0.99214661 0.094821744
-44.526627 -44.925556 20.990553 -0.14231102 -0.9765662 -0.16144972
-47.328453 -44.112595 20.389194 -0.34419832 -0.81445175 -0.46711448
-42.402561 -44.891212 17.234182 -0.98741847 -0.15236157 0.042316519
-53.839222 -44.009521 28.471622 -0.16679677 -0.98161918 0.092750505
-50.979118 -44.398949 25.044954 -0.17853254 -0.97852963 -0.1029849
-53.29546 -43.973553 25.252396 -0.25176132 -0.9517538 -0.17544468
-49.468849 -44.158386 22.093628 -0.30118203 -0.8842898 -0.35682061
-56.647766 -43.363991 27.92062 -0.2972798 -0.94926459 -0.102574
-43.698849 -44.438793 18.445522 -0.42608389 -0.8507331 -0.30774286
-43.206825 -43.293087 17.000408 -0.66856581 -0.55313629 -0.49705124
-50.807419 -42.496311 20.992638 -0.39863762 -0.62424594 -0.67186695
-51.628643 -43.526493 22.725319 -0.34531248 -0.82505012 -0.44727117
-43.029034 -41.993572 15.625205 -0.7985667 -0.19316013 -0.57007056
-45.893436 -49.329342 -0.84121287 -0.99757707 0.063630313 -0.028128581
-45.991516 -50.033455 1.2562941 -0.99013686 0.13410427 0.040558208
-45.953823 -43.361214 18.654661 -0.45613551 -0.65368426 -0.60385209
-53.738884 -43.160023 23.762684 -0.40778959 -0.76142579 -0.50392294
-47.330063 -41.938095 18.506802 -0.56511176 -0.25892136 -0.78333163
-44.513058 -51.741383 -10.950754 -0.68061262 -0.71281725 -0.16928668
-53.295597 -41.955929 22.034071 -0.49898037 -0.37012646 -0.78359759
-44.633232 -41.111649 16.586033 -0.57503092 -0.10403473 -0.81149006
-44.667202 -42.807953 16.704477 -0.45983759 -0.51621544 -0.72254479
-58.924152 -42.442909 27.701506 -0.42114031 -0.88084793 -0.21621259
-56.348633 -42.871689 25.550812 -0.42747617 -0.80838668 -0.40469125
-49.209206 -41.9711 19.638111 -0.46875116 -0.48104069 -0.74085915
-45.343151 -50.473804 -8.3307962 -0.98694277 -0.031318262 -0.15799715
-57.01963 -41.739101 24.901432 -0.49725029 -0.65004206 -0.57461935
-47.54388 -39.75906 18.471823 -0.64066505 0.3351081 -0.69083345
-44.25861 -50.727444 -13.17187 -0.96319598 -0.027846759 -0.26735359
-59.320766 -40.087891 25.081879 -0.46873322 -0.088202737 -0.8789252
-15.29946 -51.114094 -45.787079 -0.37043053 -0.10766598 -0.92259914
-43.450356 -39.072865 15.663296 -0.64511865 0.046912272 -0.76264095
-23.212399 -52.072163 -40.400555 -0.19422261 -0.9566049 -0.21722004
-44.782566 -38.958889 16.371141 -0.60881364 0.11807983 -0.78447634
-35.993382 -50.69162 -30.051954 -0.78441495 -0.12952001 -0.60656214
-17.939201 -49.77597 -44.500782 -0.42337406 0.09426146 -0.90103781
-33.894665 -50.595051 -32.566071 -0.76154453 0.010888832 -0.6480211
-37.457962 -47.040039 -26.970829 -0.83715689 0.1550719 -0.52451986
-2.7640061 -50.344059 -45.790787 0.11473825 -0.33643758 0.9346897
-29.357225 -42.968079 -35.560825 -0.67308098 0.15228432 -0.72372055
-70.562805 -29.652405 31.41024 -0.91345888 -0.34777069 -0.21130188
-36.033482 -35.646145 -25.811735 -0.82248873 0.1719947 -0.5421533
-72.135529 -24.996506 33.231422 -0.98958045 -0.14045629 -0.031662982
-39.510616 -25.42712 -14.02937 -0.94058454 0.18130946 -0.28710231
-31.345987 -29.55607 -30.330864 -0.74247938 0.17103279 -0.64766669
-34.51231 -27.893225 -25.601042 -0.83411247 0.17559488 -0.5228985
-70.55719 -11.412676 30.710657 -0.7088697 -0.054885652 -0.70320076
-68.733086 -7.9189825 29.360456 -0.50997406 0.010242478 -0.86012882
-40.846954 -51.972481 -20.036797 -0.43519217 -0.87450588 -0.21411955
-32.890514 5.2098942 16.582012 -0.82419306 -0.53186512 0.1944875
-61.984318 -0.78293198 26.186516 -0.0082698157 -0.50249761 -0.86453909
-32.853565 4.2348022 14.747333 -0.94486624 -0.15139793 0.29035562
12.354039 -51.96217 -46.498329 -0.037070103 -0.98635292 0.16041739
-34.652145 7.9101353 18.962132 -0.57649583 -0.80138528 0.1594812
-58.004589 2.0178337 24.658409 -0.0084452396 -0.58606452 -0.81022036
-57.018562 2.8118134 23.934587 0.01425573 -0.55774581 -0.82988936
-37.0214 9.0431061 18.009193 -0.35014898 -0.92681265 -0.13569807
-34.607037 9.3469791 11.208576 -0.78650856 -0.25476137 -0.56258416
-36.917454 11.084688 13.11904 -0.6840632 -0.49751392 -0.5334205
-34.057289 10.628462 10.068976 -0.89055979 -0.059652768 -0.45093769
-36.517963 12.764142 11.59787 -0.62976384 -0.20480146 -0.74930221
-42.712296 11.753403 15.8771 -0.222076 -0.44703642 -0.86651063
-19.286127 20.774599 -28.948271 -0.62379587 0.20852081 -0.75325823
-19.016685 22.283182 -28.825186 -0.61031389 0.19099204 -0.7687906
-14.187287 -51.837181 -45.294697 -0.11490513 -0.93257445 -0.34220117
-18.786228 -51.953239 -43.236523 -0.28857404 -0.83512074 -0.4682931
-43.303772 -51.236202 -15.246835 -0.556328 -0.82093203 -0.12872338
-40.522099 -20.242086 0.76738405 -0.98268968 0.18443292 0.017481674
-44.494587 12.594263 16.44841 -0.53301829 0.16617575 -0.82962459
47.579571 -51.803604 16.23777 -0.15392068 -0.96321756 -0.2202736
-1.4403119 -52.117554 -47.200584 0.043279 -0.96695364 0.25125194
-34.830734 8.3616753 12.064768 -0.84009749 -0.49421036 -0.22358942
46.700417 -49.558426 13.665958 -0.80098617 -0.30733678 -0.51377547
21.59981 -51.72493 42.091713 -0.24884361 -0.88410908 -0.39550975
29.136854 -51.612049 40.21077 0.41373855 -0.78949702 0.45333749
34.031174 -51.953659 36.838104 0.38859314 -0.7234481 0.57062978
34.549751 -51.862713 35.694302 0.47882849 -0.85481894 0.20001964
10.415347 -49.260429 43.480854 -0.15058303 -0.33427063 -0.93036979
34.838013 -51.7808 34.260159 -0.18621454 -0.97029585 -0.15443467
37.210258 -51.987103 33.392006 -0.043456208 -0.99661672 0.069761582
3.7997408 -49.101494 44.07933 0.035363369 -0.11363065 -0.99289352
28.556797 -50.421169 37.114052 -0.5102849 -0.40501401 -0.75866532
37.984806 -51.965324 31.943104 -0.29227027 -0.91546065 -0.27660435
-2.8758018 -51.291012 44.406559 0.076756835 -0.59088397 -0.80309683
42.413567 -52.105778 28.467138 0.54379511 -0.70195764 0.45993742
18.817528 -47.304741 41.033173 -0.3003265 -0.1866879 -0.93538845
19.98687 -48.388992 40.775017 -0.30797148 -0.26167786 -0.91470122
30.800489 -49.9491 35.411034 -0.57090151 -0.37068143 -0.73257542
9.4396744 -46.552944 43.21682 -0.13941149 -0.1978402 -0.97026992
11.396914 -47.993229 42.831509 -0.23685738 -0.20186414 -0.95034182
16.48406 -46.333176 41.51012 -0.24036427 -0.16477343 -0.95659536
-3.7266006 -49.497669 43.739407 0.062952064 -0.30684671 -0.94967479
6.5257926 -47.727745 43.747162 -0.14216642 -0.17840134 -0.97363323
11.505974 -45.844856 42.619728 -0.2204311 -0.19969514 -0.95474184
22.105379 -47.297085 39.795418 -0.37476924 -0.16830005 -0.91171438
24.536312 -47.400398 38.83215 -0.4158437 -0.17767556 -0.89191109
26.131821 -46.130177 37.639465 -0.44730562 -0.23848471 -0.86199921
26.075058 -47.782196 38.026051 -0.43675444 -0.18311185 -0.88074714
43.237072 -51.722145 24.126757 -0.41943583 -0.87516195 -0.24117424
46.963543 -51.977924 19.181025 -0.099973395 -0.99483174 -0.017750511
45.571423 -51.529484 19.477896 -0.57667035 -0.75936562 -0.30135548
9.7354059 -45.327408 42.695511 -0.13899001 -0.26684907 -0.95366305
15.817486 -44.0345 41.139748 -0.26129991 -0.26160076 -0.92913258
11.551786 -43.11586 41.916588 -0.16761062 -0.30318314 -0.93807608
47.581654 -51.398361 14.756488 -0.55934137 -0.80649477 -0.19158117
9.0966673 -43.441055 42.351704 -0.11630479 -0.34554887 -0.93116552
13.267574 -43.451309 41.503124 -0.21971485 -0.36977175 -0.90277034
8.9943113 -41.845093 41.567223 -0.047467448 -0.35110769 -0.93513113
-3.4352841 41.335175 -32.351143 -0.21703535 0.31203696 -0.92494786
12.326226 -40.636787 40.66304 -0.22680016 -0.27971101 -0.93291128
47.811985 -50.405403 11.893841 -0.84927243 -0.36478305 -0.38166681
9.7224007 -40.06097 41.050842 -0.12665682 -0.26971313 -0.95457476
46.543968 -50.592831 15.307187 -0.75390315 -0.57152098 -0.32402736
1.6774877 -52.047703 -46.190075 0.05546299 -0.7670278 0.63921219
7.4013948 -38.753029 41.02565 -0.10369013 -0.26672092 -0.95817971
3.2961693 -38.247013 41.0797 -0.028947694 -0.24859911 -0.96817386
46.390766 -45.549198 11.47037 -0.97137672 -0.10120473 -0.21490662
9.0956087 -37.765751 40.449203 -0.095748447 -0.25401199 -0.96245009
11.940569 -33.740879 38.904354 -0.19521508 -0.34820697 -0.91686589
