# .PCD v0.7 - Point Cloud Data file format
VERSION 0.7
FIELDS x y z normal_x normal_y normal_z
SIZE 4 4 4 4 4 4
TYPE F F F F F F
COUNT 1 1 1 1 1 1
WIDTH 724
HEIGHT 1
VIEWPOINT 0 0 0 1 0 0 0
POINTS 724
DATA ascii
-45.659451 -43.449684 12.789718 -0.19680972 -0.92993635 0.31061932
-43.917072 -44.40255 11.828235 -0.35886243 -0.90927929 0.21078168
-50.224403 -42.040951 14.367307 -0.044879429 -0.68365777 0.72842157
-52.433037 -42.577148 13.58986 -0.05184985 -0.83672184 0.54516792
-57.055267 -41.381069 14.496575 -0.12679908 -0.55367517 0.82302237
34.116146 16.323185 9.6072168 0.93863171 0.17812607 0.29536682
37.189758 -28.363504 21.887815 0.83296615 0.16257383 0.52890199
-60.45232 14.689161 1.8626164 0.97285074 0.12207783 -0.1966176
-60.768379 16.770744 2.2957211 0.96011406 0.16945815 -0.22240713
-60.190746 12.043239 2.3380258 0.97564697 0.07604894 -0.20574175
-53.483788 -27.540577 1.4835171 0.77251083 0.60265654 -0.2000805
-52.512756 -28.51536 0.87035835 0.58031505 0.79596752 -0.17225005
-18.034964 40.795715 -19.174408 -0.093239322 0.99425375 -0.05259091
-23.647753 40.463852 -13.111592 -0.41117153 0.89042872 -0.1951271
-23.239323 40.385582 13.17767 -0.54294443 0.79488564 0.27086568
-28.6628 20.34082 11.807624 -0.91927493 0.17095573 0.35455298
-66.66124 18.193357 11.635472 -0.41548979 0.069648936 0.90692735
-27.37558 -2.4546793 21.795311 -0.7805993 0.16494106 0.60287577
-66.147675 -3.0596895 12.211393 -0.69576496 -0.0030593583 0.71826309
29.508112 40.227055 7.3058434 0.6266461 0.76262289 0.1603777
-22.685472 12.106292 23.31246 -0.6947273 0.17558873 0.69751167
-63.23756 -13.744016 13.739618 -0.11823242 0.051750775 0.99163651
7.1663542 -45.412403 38.656963 -0.12852086 -0.30504534 -0.94362581
10.569558 -45.840969 38.238232 -0.18324208 -0.30544731 -0.93441123
1.3981103 -44.840393 38.777634 0.027046273 -0.31073171 -0.95011282
4.6796765 -45.995106 39.086628 -0.03134818 -0.31336853 -0.94911402
0.68877691 -41.370953 37.662235 0.021286359 -0.26825908 -0.96311158
5.0339456 -42.992474 38.141731 -0.053080898 -0.28748569 -0.95631289
8.2617512 -41.59803 37.377827 -0.13968167 -0.26925567 -0.95288527
19.095123 -46.661594 35.74136 -0.30195493 -0.39748484 -0.86650395
19.289764 -44.089256 34.744358 -0.42839485 -0.31536102 -0.84677345
11.06646 -40.535606 36.471405 -0.23413973 -0.2527543 -0.9387725
3.8150673 -40.043846 37.344517 -0.045393739 -0.25104961 -0.96690923
-4.3314238 -40.084839 36.768959 0.17150244 -0.25236246 -0.95231307
-1.0238013 -39.157207 36.996002 0.091527797 -0.24356437 -0.96555638
5.5640793 -37.286705 36.535603 -0.077421479 -0.22308087 -0.97172052
-2.63662 -36.33313 36.183945 0.12940571 -0.19009256 -0.97320038
8.3833866 -36.696171 36.091431 -0.17775157 -0.23165637 -0.95642018
2.0234785 -36.615635 36.565762 0.0097177885 -0.2053646 -0.97863734
11.96755 -37.455994 35.479462 -0.28486755 -0.23288837 -0.92984593
-5.2441945 -34.231411 35.371239 0.21574491 -0.18170165 -0.95939487
6.2147088 -34.62867 36.021816 -0.092428796 -0.19029492 -0.97736621
-1.2552544 -34.211159 36.076378 0.076781861 -0.15343997 -0.98517042
2.7748296 -33.857727 36.015213 -0.017846778 -0.19105379 -0.9814173
34.201199 -44.233513 22.143637 -0.78761739 -0.32422695 -0.52396142
35.893692 -43.923035 19.186447 -0.81911188 -0.32438952 -0.47310367
34.457344 -42.219643 20.524389 -0.8090319 -0.28919569 -0.5116964
31.959957 -48.498581 27.268511 -0.66865379 -0.36417839 -0.64828712
33.813396 -46.503525 24.016302 -0.73261827 -0.34046903 -0.58936518
20.529213 -46.481583 35.14082 -0.37230918 -0.75718194 -0.53671348
30.359032 -45.831955 27.548544 -0.67331916 -0.32014173 -0.66644621
28.497934 -42.231087 27.655901 -0.6409542 -0.28922653 -0.71100324
32.809143 -43.208832 23.449638 -0.73924321 -0.31208965 -0.59675747
30.322992 -43.480358 26.50732 -0.70648164 -0.29439142 -0.64359725
32.216705 -40.452572 22.794676 -0.76769406 -0.27778405 -0.57747895
30.447298 -38.972095 24.288177 -0.73681462 -0.25221184 -0.62729055
34.482479 -38.454838 18.518204 -0.82836503 -0.24720465 -0.50269389
28.562611 -39.331741 26.437597 -0.6730805 -0.25458542 -0.69436944
32.482803 -37.782219 21.291241 -0.79284686 -0.21744983 -0.56930608
29.545914 -36.815331 24.604263 -0.71824968 -0.21456151 -0.66187674
31.808771 -35.226936 21.324533 -0.77409065 -0.20567642 -0.59873271
33.441067 -35.767853 19.121809 -0.839522 -0.19099629 -0.50864834
35.216412 -35.497227 15.871239 -0.87093627 -0.16608182 -0.46247911
33.027142 -33.733974 19.157982 -0.82388389 -0.18576805 -0.53544891
29.420616 -33.917244 23.84868 -0.73402059 -0.21474747 -0.64428043
20.575039 -46.503941 36.564297 -0.30364618 -0.48391485 -0.8207469
9.2980642 -48.071743 39.203156 -0.16232134 -0.33098429 -0.92957038
21.422739 -47.131348 34.789448 -0.57023948 -0.34449524 -0.7457546
26.730072 -47.560932 31.578411 -0.54896396 -0.34239787 -0.76249748
29.229813 -48.162846 29.622812 -0.62914962 -0.35538611 -0.69128251
17.206902 -44.901402 35.908371 -0.33544025 -0.31322446 -0.88846511
13.165943 -46.384682 37.805756 -0.25882435 -0.32425147 -0.90987414
21.470469 -45.078007 33.93148 -0.48754314 -0.33761877 -0.80518025
27.373329 -44.931026 29.768612 -0.61535585 -0.31807727 -0.72122401
-0.71377164 -46.706287 39.275024 0.066372119 -0.33566239 -0.93964112
13.835483 -44.22905 36.904114 -0.30195633 -0.30098853 -0.90455967
17.329266 -41.316471 34.663235 -0.3649177 -0.29505578 -0.88304991
20.985678 -42.599018 33.088448 -0.48590052 -0.31950292 -0.81352222
24.794592 -43.444103 31.157373 -0.53175342 -0.31278211 -0.78702325
19.145477 -41.720451 33.908546 -0.4635447 -0.28178284 -0.84007424
-1.6364387 -43.552086 38.13139 0.10781604 -0.28806454 -0.95152223
11.659448 -43.190773 37.137917 -0.23201264 -0.29980588 -0.92535746
22.518158 -40.988472 31.683769 -0.5031392 -0.25867811 -0.8245827
14.717877 -41.241608 35.594715 -0.30132523 -0.27521244 -0.91294092
26.721838 -42.030437 29.155539 -0.59608167 -0.28095302 -0.75216496
21.840019 -38.380352 31.359686 -0.49494067 -0.23265469 -0.837201
16.134848 -37.888199 34.068062 -0.36607945 -0.23849916 -0.89950204
18.345547 -38.635693 33.242294 -0.43097818 -0.2603353 -0.86399263
26.064236 -37.723988 28.139008 -0.61258841 -0.24630018 -0.75104707
11.979689 -36.037693 35.131474 -0.26361489 -0.23499472 -0.93556654
23.932772 -38.474674 29.943909 -0.55712831 -0.25871536 -0.78909719
19.27277 -36.253815 32.241726 -0.43406993 -0.19044906 -0.8805182
23.162901 -35.518101 29.706339 -0.56203008 -0.2143711 -0.7988537
19.436224 -34.130245 31.70425 -0.46804413 -0.22050776 -0.85575169
16.073778 -35.494057 33.622868 -0.36653879 -0.21179162 -0.90597665
9.9367762 -34.56073 35.251034 -0.22172233 -0.2458141 -0.94361788
14.38842 -33.926392 33.832504 -0.31772375 -0.26312941 -0.9109416
22.588217 -34.070141 29.784334 -0.56296813 -0.17998742 -0.80664212
26.66197 -34.861671 26.824493 -0.64523929 -0.21865878 -0.73202085
-2.8664052 -45.083061 38.539795 0.13760656 -0.33095708 -0.9335587
41.623837 -51.645046 -13.611785 -0.70841825 -0.66059649 0.24850711
40.425854 -51.540928 -16.422611 -0.72859383 -0.59691083 0.33592927
42.734146 -51.721657 -10.410816 -0.7234357 -0.65185779 0.22742531
40.390984 -49.086281 -13.529694 -0.85852909 -0.386603 0.33684698
34.468174 -51.374352 -25.571512 -0.65391505 -0.52206606 0.54757845
41.621014 -49.015686 -9.4734907 -0.90211427 -0.37818125 0.2077712
38.831551 -49.700855 -17.792053 -0.80326033 -0.41622064 0.42606723
40.704449 -48.258781 -11.680186 -0.88599062 -0.367643 0.28259391
36.762932 -48.585903 -20.535885 -0.80000788 -0.33916143 0.4949311
33.926327 -48.164448 -24.247028 -0.74199784 -0.34959143 0.57203597
40.67411 -46.355049 -9.5058842 -0.91702443 -0.32408506 0.23245431
35.017849 -45.981266 -21.516226 -0.77590364 -0.31834683 0.54463637
39.700214 -44.287941 -10.277769 -0.9121865 -0.29854763 0.28068703
41.386967 -44.991379 1.4844497 -0.94663882 -0.32175401 -0.018688489
39.771053 -41.985291 -6.9103875 -0.93437701 -0.29603371 0.19825135
36.482441 -44.042294 -17.835194 -0.8250246 -0.31380096 0.46996099
38.24707 -40.831959 -11.535476 -0.90879506 -0.25970873 0.32656235
34.541061 -43.139832 -20.562401 -0.8170802 -0.27477109 0.50683409
36.009655 -41.165749 -16.955904 -0.85755396 -0.2575126 0.44529596
33.150993 -42.699654 -22.299347 -0.76771802 -0.27843428 0.57713377
38.996689 -41.284828 -9.4240055 -0.93705773 -0.25490573 0.23863317
32.289604 -40.246113 -22.3918 -0.7843731 -0.2233699 0.57867497
38.660122 -38.326195 -7.8612857 -0.95643622 -0.19817384 0.21437556
34.435238 -38.568989 -18.503799 -0.82633287 -0.23837467 0.51024646
36.122223 -38.797848 -15.469774 -0.88584989 -0.21850839 0.40929699
31.700401 -37.540569 -22.221502 -0.76609719 -0.20135802 0.61036879
36.29147 -35.357723 -13.38141 -0.90215921 -0.16686873 0.39782363
38.098503 -35.387157 -7.846808 -0.96012557 -0.16491964 0.22574396
34.606361 -35.053577 -16.750957 -0.86093462 -0.16978237 0.47954741
-65.456978 -3.6594193 -4.8968768 -0.2911709 0.0632651 -0.95457691
-35.794094 -50.234875 23.36928 -0.84308863 0.036327023 0.53654617
-42.716942 -47.571991 -0.47169328 -0.99962586 0.027002038 0.0043693795
-42.81255 -46.106194 -3.1741374 -0.9521746 -0.29918945 -0.062041305
-38.205647 -47.216244 18.146259 -0.89287031 0.11813698 0.43454143
-40.507088 -46.214115 12.377249 -0.94015592 -0.12190253 0.31819278
-41.108799 -45.072086 12.756422 -0.51693863 -0.83432466 0.19151178
-41.593857 -46.126858 8.9974947 -0.89386904 -0.37004718 0.25310713
-43.601479 -44.516365 8.8703003 -0.44183731 -0.89399129 0.074560486
-34.686146 -41.675102 22.690435 -0.83829582 0.15160739 0.52371299
-37.58762 -41.101311 17.392971 -0.77431953 0.085697316 0.62696511
-63.26585 -40.398945 11.085999 -0.7438302 -0.57232064 0.34520382
-65.546577 -39.076195 1.1308165 -0.9094246 -0.41572183 0.011058396
-64.462502 -39.341248 9.6467819 -0.85595256 -0.47513905 0.20393161
-63.943581 -37.733932 12.883941 -0.81743324 -0.312985 0.48357338
-65.535767 -34.290672 10.737657 -0.92578846 -0.15294614 0.3457213
-64.439377 -31.616116 13.693757 -0.73673683 -0.075925 0.67190355
-65.664162 -29.599911 11.858294 -0.90174544 -0.087133139 0.42339471
-7.9938083 -6.3298001 35.663258 -0.27644002 0.17637239 0.94470829
-28.489491 -12.113814 23.177097 -0.7737807 0.17478855 0.60886145
-66.349167 -27.316216 10.511193 -0.96246231 -0.054293331 0.26592949
-66.36924 -24.596542 10.622303 -0.94152224 -0.038313866 0.33476552
-65.192825 -21.822678 13.12982 -0.76566505 -0.019784484 0.64293504
-65.378265 -19.428106 13.014241 -0.74307793 -0.015081977 0.66903496
-66.361435 -20.344313 11.186983 -0.91405785 -0.028297264 0.40459546
-67.032745 -20.295654 9.0620251 -0.9764626 -0.039891418 0.2119655
-66.903511 -16.582153 9.851346 -0.93617129 -0.019766271 0.35098803
-66.920456 -13.875085 10.140839 -0.94594651 -0.034546178 0.32247761
-66.571854 -11.300691 11.252264 -0.91626614 0.0030353467 0.40055865
-67.299561 -9.1663971 9.2893572 -0.95584756 -0.025977299 0.29271251
-66.519585 -6.0516725 11.717105 -0.86524481 -0.030783737 0.5004037
-10.462986 16.811413 30.400734 -0.34436947 0.15920614 0.92523676
-29.624191 21.094337 8.714922 -0.94652361 0.15635718 0.28221542
-28.148617 34.127308 5.7851696 -0.9617368 0.18236655 0.20446219
-68.295738 18.069525 8.8433685 -0.96502155 -0.038064249 0.25939286
31.535809 -51.071938 33.04425 0.67963088 -0.27043003 0.68188673
-14.12225 -50.099285 37.374599 0.33874139 -0.43155578 -0.83607048
-10.179354 -50.857368 39.06678 0.26567474 -0.45987234 -0.84731007
-6.0558572 -47.635197 38.867554 0.19379616 -0.33425957 -0.92234135
0.85294169 -48.152912 39.875061 0.013079458 -0.36344653 -0.93152332
6.2017655 -48.602501 39.950562 -0.078952424 -0.36796606 -0.92648125
-11.551974 -47.014503 37.049675 0.32487708 -0.34428167 -0.88086605
-6.0326085 -43.814381 37.531479 0.19377257 -0.3025943 -0.93321425
-13.514604 -44.890182 35.451252 0.36181471 -0.31042907 -0.87904716
-20.438448 -44.611523 31.536081 0.50947976 -0.33060113 -0.7944389
-6.1380973 -38.225029 35.943428 0.23077089 -0.22470075 -0.94670707
-10.489299 -39.300419 34.902916 0.31084952 -0.24355884 -0.91872287
-7.6110911 -36.419422 35.139069 0.27982506 -0.19516052 -0.94000548
2.6487837 -49.842152 -44.283035 -0.0014852496 0.035606727 -0.99936473
3.1114624 -47.105133 -43.887951 0.056165081 0.13305081 -0.98951656
0.22520666 -45.822571 -43.681721 -0.033603363 0.13476843 -0.99030715
5.3867478 -34.062016 -42.040371 0.080831043 0.13453197 -0.98760694
10.684817 -31.271776 -40.853542 0.20279871 0.1362341 -0.9696973
12.145103 -28.062918 -40.033443 0.24438941 0.14411166 -0.95890856
-24.483711 -48.594303 30.268141 0.60716617 -0.35864785 -0.70902824
-24.611969 -51.243973 31.614731 0.52128017 -0.55224043 -0.65061325
-28.053152 -47.339798 26.154718 0.70758802 -0.34852582 -0.6146943
-21.147058 -47.52417 32.337975 0.54162693 -0.35472301 -0.76211017
-19.162382 -48.451073 33.967411 0.47302428 -0.36466211 -0.80204093
-26.180534 -46.703205 27.790232 0.65478492 -0.34615713 -0.67188686
-22.69832 -46.174561 30.525246 0.57872766 -0.3391352 -0.74166143
-15.327703 -46.556553 35.344254 0.43260601 -0.33557603 -0.83680391
-27.157446 -44.271271 25.516876 0.70681232 -0.3212499 -0.63024986
-24.273342 -44.218212 28.34688 0.63428617 -0.31883752 -0.70428938
-8.9374695 -46.000698 37.519165 0.26547226 -0.32696417 -0.90698338
-11.630909 -42.678604 35.49638 0.33977124 -0.28889981 -0.89503771
-22.121298 -42.916332 29.537443 0.58334285 -0.3064988 -0.75217652
-14.099813 -42.488159 34.402542 0.4024657 -0.29859948 -0.86536676
-8.9835997 -41.830509 36.200092 0.26176327 -0.27787995 -0.9242633
-22.938955 -40.580204 28.0702 0.62629145 -0.26387894 -0.73357129
-27.146072 -40.717773 23.774572 0.73499215 -0.26732111 -0.62315804
-25.725182 -41.650917 25.829258 0.68285275 -0.29130214 -0.66996646
-18.78463 -40.292671 31.121471 0.52629685 -0.24999322 -0.81272072
-16.766174 -42.705029 33.079796 0.47823018 -0.27953511 -0.83255994
-13.12208 -40.054653 34.107388 0.40419674 -0.24817766 -0.88035953
-19.953554 -38.136948 29.610588 0.56837797 -0.2395066 -0.78713602
-24.884363 -39.550522 25.827726 0.67755091 -0.25534484 -0.68972731
-33.365086 -41.439384 14.217364 0.87270284 -0.29161793 -0.39159763
-21.145304 -36.144688 28.111994 0.6361143 -0.22155029 -0.73910356
-16.245773 -38.09193 32.005817 0.47865546 -0.22648329 -0.84828907
-24.46549 -37.828144 25.686409 0.69030529 -0.23715648 -0.68354613
-10.664326 -36.455257 34.193153 0.30584678 -0.19502115 -0.93189293
-18.617865 -35.935757 29.975285 0.5585373 -0.20280348 -0.8043052
-24.23156 -35.037193 24.9167 0.70548415 -0.19984446 -0.67996633
-12.518777 -37.272125 33.706818 0.39803711 -0.21289675 -0.89232361
-17.026752 -34.771263 30.726627 0.52462983 -0.19325806 -0.8291049
-10.098592 -34.549091 34.036816 0.3304978 -0.20560287 -0.9211399
-56.841797 -12.484089 4.7241731 0.98730445 0.14006543 -0.074910343
27.943501 -50.509117 -35.938473 0.5775075 0.071913704 -0.81321186
-56.959026 -12.988602 2.2688825 0.97268617 0.14190492 -0.18369706
25.13464 -47.801495 -37.416809 0.51240516 0.12117565 -0.85015136
31.942522 -47.038212 -32.127373 0.67483455 0.12530075 -0.72725374
33.886799 -46.97953 -30.230606 0.71220845 0.12241584 -0.69121164
21.793547 -43.808014 -38.65377 0.44809449 0.12528072 -0.88516438
18.054693 -43.973309 -40.332279 0.36118361 0.12528905 -0.92403954
-59.615078 6.2773242 2.1044874 0.97988927 0.11802013 -0.16089796
-59.982529 7.5879407 1.3269103 0.96488589 0.12492314 -0.23106173
-59.529716 9.1434412 5.1324062 0.9935658 0.091334485 -0.066971183
-60.092232 9.6190624 2.3174994 0.97244114 0.083532624 -0.21767052
31.337191 -23.518309 -28.187601 0.69439346 0.15082677 -0.70361143
28.102148 -23.44507 -31.184916 0.62453967 0.15010974 -0.76643157
32.706329 -21.527843 -26.198933 0.74835443 0.15115072 -0.64584756
-61.149239 18.036392 1.856308 0.96984655 0.13117319 -0.20540515
-61.494293 17.153173 -0.20159438 0.93635952 0.095045298 -0.33793077
-61.324329 19.906706 1.6549066 0.98412758 0.039294004 -0.17305785
-61.698582 20.610422 0.38250339 0.93573821 0.12875386 -0.3283543
26.89171 19.01269 -22.48176 0.7500236 0.15842664 -0.64215702
-37.0219 -48.398293 11.376966 0.89867187 -0.34755215 -0.26757485
-30.938183 -48.808331 23.482124 0.74335283 -0.37100998 -0.55657727
-32.237106 -47.751949 20.896442 0.79728496 -0.35104385 -0.49102437
-35.294174 -46.769375 14.161088 0.87453979 -0.33812249 -0.34763971
-34.230488 -46.632629 16.61109 0.8382144 -0.33538115 -0.43001878
-34.47559 -43.349636 13.222488 0.88825554 -0.31202522 -0.33710894
-31.472246 -44.146095 19.768501 0.80723971 -0.3181496 -0.49713674
-36.714512 -45.962067 8.8243837 0.92103201 -0.31522274 -0.2287676
-35.644859 -45.113499 11.542539 0.8973521 -0.33425975 -0.28814861
-35.607773 -43.336029 9.5684319 0.91720611 -0.29584628 -0.266848
-33.291088 -44.431747 16.850605 0.84340405 -0.32623193 -0.42689851
-30.432491 -46.366352 22.727165 0.7524364 -0.32902464 -0.57059819
-35.942375 -42.49683 7.2149606 0.92681324 -0.32917067 -0.18073143
-33.601353 -40.321899 12.685438 0.89424449 -0.27954817 -0.3495419
-32.366665 -42.299187 16.981783 0.84734178 -0.29779387 -0.43969393
-20.551947 -42.526806 30.581421 0.55914485 -0.26864788 -0.78433752
-35.195446 -40.450874 7.2956023 0.94100559 -0.29338101 -0.16862969
-29.1751 -42.031559 21.931767 0.76250118 -0.31132647 -0.56715763
-28.884779 -39.697731 21.119888 0.78218055 -0.24807882 -0.57153344
-34.015614 -38.671692 10.485435 0.92077047 -0.26659784 -0.28479365
-31.43351 -38.76519 16.578672 0.86780763 -0.26763314 -0.4186675
-34.575912 -38.027699 7.3648944 0.9528966 -0.25587168 -0.16284278
-30.612383 -40.195511 18.703033 0.81847417 -0.27126253 -0.50647479
-35.036682 -38.315891 4.1847053 0.95800114 -0.25227875 -0.13634235
-32.2645 -37.475567 13.838774 0.89043963 -0.2538743 -0.37771022
-34.310131 -36.355221 5.6880541 0.95857519 -0.24499495 -0.1452965
-32.854858 -35.844318 11.285897 0.90987021 -0.25546345 -0.32691672
-28.683001 -37.044441 20.346697 0.80740774 -0.23488593 -0.5412221
-26.634232 -36.937344 22.988205 0.74518567 -0.23833756 -0.62281096
-33.698872 -35.777252 8.3226738 0.9390468 -0.26048264 -0.22436559
-30.730162 -35.829193 16.351179 0.85682458 -0.23955245 -0.456581
-28.987867 -35.199425 19.102087 0.82730913 -0.22555692 -0.51447427
37.073433 -47.36478 -26.695253 0.77223438 0.1290825 -0.62208664
40.371616 -46.295296 -21.665276 0.86076516 0.13940765 -0.48953933
41.568031 -44.330627 -18.686628 0.88886034 0.13897765 -0.43659186
38.949806 -43.292427 -23.185682 0.84523642 0.14545172 -0.51421714
44.332783 -42.759842 -10.558345 0.95906508 0.13727038 -0.24769102
42.0938 -42.081871 -16.936449 0.90199172 0.13302043 -0.41075104
42.197227 -34.433754 -13.475762 0.93415934 0.1464949 -0.3254008
41.514229 -29.283695 -13.112821 0.93358785 0.1516498 -0.32467839
41.855206 -26.438246 -10.53365 0.95614779 0.15567389 -0.24808691
40.814228 -17.788004 -8.9566717 0.95771188 0.16840945 -0.23329456
39.034447 -11.801182 -11.386037 0.93756646 0.17393638 -0.30118957
39.7118 -10.954972 -8.3051424 0.96319836 0.18194461 -0.19785103
38.266537 -4.3219662 -9.0437889 0.95288336 0.17755176 -0.24594435
38.872509 -6.6000609 -8.3038511 0.95728499 0.18551223 -0.22178963
37.279316 1.6404814 -8.8877964 0.9575637 0.16932108 -0.23324259
37.318027 -1.8456317 -10.889977 0.94020915 0.16835994 -0.29607725
36.306396 3.1687036 -11.175693 0.93791699 0.17074652 -0.3019228
36.773136 5.9196053 -7.7486424 0.95980924 0.17515793 -0.21928528
35.968647 7.2359443 -9.9518299 0.94343287 0.18350983 -0.27614936
36.210117 8.9424667 -7.5805655 0.95720661 0.18378246 -0.22356127
35.52977 12.339499 -7.8122759 0.96537131 0.17369221 -0.1946516
34.823738 13.582148 -9.7356272 0.94375092 0.16472664 -0.28670424
34.629986 16.335644 -8.6316795 0.95879459 0.17368713 -0.22482352
34.244385 19.33123 -7.9199014 0.96344066 0.17410915 -0.203637
33.377819 24.268917 -8.046032 0.96118635 0.14903346 -0.23218484
9.7892494 -50.870911 -43.564983 0.17259394 -0.075335138 -0.982108
-39.20245 -49.971722 -4.8023839 0.94417846 -0.30129483 0.13322333
-37.565838 -47.713451 -9.3976917 0.92381591 -0.30357519 0.23325163
-38.61203 -48.978985 -7.1193318 0.94207329 -0.31020916 0.127547
-38.396008 -47.556183 -4.3725271 0.930462 -0.35092545 0.10531802
-37.749252 -47.145306 -6.3170371 0.923163 -0.36186188 0.12971538
-38.810532 -48.136051 1.7510934 0.92098838 -0.3859764 -0.052941818
-35.720413 -46.397785 -13.171657 0.89380622 -0.29290023 0.33958772
-38.271793 -48.032772 4.5404181 0.91726899 -0.37660897 -0.12955011
-38.391174 -47.371262 -1.8791136 0.92849714 -0.3713026 0.0052502002
-37.536514 -45.67535 1.2929295 0.93558198 -0.35052973 -0.042605631
-36.614037 -47.740017 -12.368705 0.8871823 -0.31069279 0.3411417
-32.067741 -48.458508 -22.321369 0.80433238 -0.31934166 0.50106913
-32.799419 -46.303516 -19.542107 0.82423151 -0.31060684 0.47346151
-21.517012 6.4084187 -27.355192 -0.66681367 0.16181667 -0.72744411
-37.583519 -45.696712 4.0735259 0.9493888 -0.30467302 -0.076388292
-36.032639 -44.926636 -11.344357 0.89791656 -0.32752937 0.29405859
-37.117264 -44.382832 -3.6673253 0.93064028 -0.34291062 0.12775375
-37.292229 -45.84959 6.345161 0.93383396 -0.32035542 -0.15914291
-31.688139 -45.525681 -21.040167 0.79190755 -0.32482341 0.51708055
-37.015297 -43.532505 0.048117694 0.96105605 -0.27277684 -0.044317327
-31.348036 -44.008514 -20.484282 0.80529654 -0.32540995 0.49558631
-30.864098 -42.214394 -20.036381 0.81774592 -0.29862046 0.49205425
-35.669212 -42.391335 -9.3516045 0.89589 -0.34620318 0.27843246
-35.015354 -40.56395 -9.6436319 0.89219475 -0.34476027 0.29176849
-35.448689 -40.62524 -7.3850651 0.93922144 -0.27316701 0.20794906
-35.663132 -41.499226 -6.7272234 0.9490304 -0.30278769 0.087526754
-34.727184 -40.376152 -8.948535 0.92771924 -0.2934894 0.23065329
-35.828991 -39.878777 -1.0642128 0.96538138 -0.2552667 0.053644847
-68.445114 15.45547 -1.4394075 -0.95409524 -0.05171885 -0.29500404
-41.114799 -51.776936 -11.740791 -0.78379089 -0.54434031 -0.29894057
-34.252792 -38.708866 -9.7566776 0.90934551 -0.28341955 0.30457214
-35.715355 -39.050053 0.13103741 0.96366352 -0.26682252 -0.012587331
-34.135563 -37.029167 -8.6845217 0.90770113 -0.25259849 0.33507124
-35.218426 -37.660809 -2.3002346 0.95460939 -0.29027739 0.066782005
-35.197205 -37.719917 2.1517434 0.96042651 -0.25726992 -0.10673812
-34.84964 -37.570957 -7.4005027 0.95415252 -0.2658352 0.13756683
-39.178703 -52.853886 -16.680172 -0.23548913 -0.9693734 -0.069713905
-33.157677 -35.650417 -10.102133 0.92750245 -0.23977752 0.28678542
-34.632225 -36.092381 -1.2511328 0.95214105 -0.30116296 0.052231889
-34.460537 -34.967159 -0.19368599 0.97466844 -0.22360277 0.0048057758
-7.7296653 16.023975 -33.034252 -0.28205383 0.16365218 -0.94533783
-34.095665 -35.775917 -7.2542195 0.92735183 -0.32256156 0.18966424
-35.151409 -37.22163 0.022040389 0.95522845 -0.29494223 0.023403019
-34.169445 -35.376587 -5.3527088 0.95833147 -0.25540882 0.12793422
-34.583233 -36.241165 3.3925128 0.96059138 -0.23307899 -0.15145476
45.491886 -46.744545 8.7214441 0.97248125 0.13743411 0.18812807
42.941792 -35.90276 12.019997 0.95031792 0.14438005 0.2757723
43.134033 -33.608627 10.227428 0.95788109 0.15099332 0.24426413
43.761276 -35.995056 9.098588 0.96727175 0.14264594 0.20985101
43.681526 -29.86964 -3.0554826 0.98388243 0.15161477 -0.094806992
42.310684 -25.130068 -7.5654593 0.970029 0.15613841 -0.18618408
41.974228 -23.56871 -8.1748934 0.97041142 0.15468241 -0.18540522
41.668209 -17.734241 -3.245575 0.98233753 0.17264874 -0.072147921
40.452126 -18.530577 10.637451 0.94671839 0.17794889 0.26843697
40.065746 -14.590507 -9.5925207 0.95173782 0.17348497 -0.25317594
40.719444 -15.130905 -7.0815272 0.97138262 0.17509535 -0.16049166
40.680401 -12.027279 -2.7096531 0.98027664 0.17820366 -0.085446954
37.943218 0.76259422 -6.3059659 0.97275901 0.17032614 -0.15725416
36.070312 12.893153 -3.3064167 0.98280627 0.17662224 -0.053817581
34.577164 21.071987 -4.5434093 0.97647214 0.16680683 -0.13666603
34.284737 23.097843 3.0563388 0.97986656 0.16952045 0.10547152
34.074387 25.596201 -2.0847476 0.98713511 0.15378518 -0.043753069
33.886047 26.13448 1.0368814 0.98466349 0.16261685 0.063195392
33.545586 26.802622 -5.0330858 0.97844315 0.15180174 -0.14001891
33.523701 28.704897 1.3931336 0.9854359 0.15956606 0.058776081
32.802349 27.987074 6.8279181 0.95255911 0.15765613 0.26033774
39.604992 -8.5072155 -6.5002246 0.97478712 0.17364089 -0.14013872
-31.946482 -50.789997 -23.993471 0.81499195 -0.19209987 0.54670453
-32.71637 -49.999828 -21.868364 0.79091108 -0.35107735 0.50120294
-36.069317 -51.387459 -16.74152 0.81649172 -0.48124507 0.31897426
-33.76601 -50.600273 -21.141699 0.85663426 -0.21163554 0.47051898
-34.941807 -48.365284 -17.199593 0.84649819 -0.33946234 0.41012931
-30.702765 -47.360886 -23.582481 0.725371 -0.37868226 0.57483613
-33.241966 -47.921574 -19.93992 0.81550628 -0.31731406 0.48400554
-35.379219 -47.231533 -15.020355 0.87673855 -0.32173392 0.35751453
-28.938087 -46.0858 -24.839577 0.70594931 -0.35037401 0.61552721
-33.629082 -44.907291 -17.181139 0.85798234 -0.32730836 0.39589855
-26.849916 -45.344746 -26.942507 0.70052004 -0.30619127 0.64460719
-33.303268 -43.336136 -16.233194 0.86226326 -0.31674144 0.39519233
-35.296902 -44.816326 -13.434014 0.87915683 -0.31030029 0.36165875
-37.12661 -45.797401 -7.2836757 0.93328214 -0.34869012 0.086021245
-28.712944 -44.28516 -24.009821 0.74971688 -0.30061138 0.58954
-34.311985 -43.257107 -14.33183 0.87427533 -0.32066867 0.36443684
-29.53651 -43.249725 -22.571106 0.74720675 -0.28658777 0.5996244
-25.338354 -40.884567 -26.397932 0.6539824 -0.28235629 0.70184171
-31.726427 -40.430969 -17.546997 0.85305274 -0.26060051 0.45209339
-28.947243 -40.562988 -22.208227 0.78858405 -0.23917376 0.5665077
-32.406078 -42.842823 -18.208208 0.82834816 -0.32403457 0.45699126
-34.713211 -42.713947 -12.30331 0.89117956 -0.35616252 0.28097552
-26.083948 -39.486786 -25.310284 0.70215303 -0.2503885 0.66654825
-28.054316 -39.649612 -23.04384 0.74063563 -0.30225992 0.60008144
-29.976877 -39.424 -20.191074 0.82265145 -0.26350772 0.50379372
-33.259098 -39.961639 -14.048748 0.89237309 -0.29321098 0.34307083
-23.41453 -40.218876 -27.966879 0.67979342 -0.27511427 0.67984778
-28.803467 -37.966068 -21.149834 0.80086237 -0.2169984 0.55814976
-25.786154 -37.19035 -24.595095 0.76322287 -0.27193671 0.586124
-26.917326 -38.475582 -23.539942 0.75103384 -0.22534576 0.62061858
-32.509251 -38.721645 -15.56915 0.89681673 -0.27496892 0.34657159
-24.099054 -38.188091 -26.412292 0.64773363 -0.16243304 0.74434978
-31.393511 -38.327374 -17.20985 0.81419176 -0.29943708 0.49742264
-31.514751 -36.847881 -15.909345 0.83681786 -0.37307456 0.40068835
-24.93647 -37.022339 -25.950882 0.66800308 -0.29578879 0.68284768
-27.663929 -36.720642 -22.614578 0.73341089 -0.24480207 0.63417697
-28.771233 -35.684017 -20.537302 0.79831821 -0.35280827 0.48807219
-30.030525 -37.639736 -18.990559 0.83729959 -0.28722039 0.46522444
-26.924824 -35.396057 -22.196577 0.73172385 -0.32193467 0.6007815
-35.605976 -39.570881 2.8562438 0.95120835 -0.28048286 -0.12857722
-25.531538 -35.452408 -24.198721 0.69195598 -0.35454562 0.62888336
-30.179476 -35.514057 -17.163174 0.84774375 -0.25569248 0.46470618
-5.9340787 26.554678 -31.802721 -0.23937148 0.14182723 -0.96051359
39.550858 -44.799389 22.932009 0.84935641 0.14148743 0.50850266
41.125168 -44.509525 20.028748 0.88215882 0.1394317 0.4498384
44.11451 -44.722691 12.79697 0.94297677 0.13949206 0.30221972
41.853355 -38.964405 16.520504 0.91899621 0.14785543 0.36549264
40.67065 -40.582699 19.700777 0.87875032 0.14752832 0.45390895
40.836483 -36.699932 18.074181 0.89753056 0.15237302 0.41378883
38.990578 -31.891096 19.998709 0.86507827 0.15791352 0.47613341
39.632263 -28.587025 17.600294 0.88645983 0.15886357 0.43468541
32.297157 -29.026192 28.299286 0.71564525 0.15979324 0.67993963
-60.731945 18.414324 4.0852342 0.98577762 0.11431492 -0.12318558
31.837381 -21.121559 26.796309 0.72198224 0.17350148 0.66980505
39.976929 -19.595081 12.714066 0.92577046 0.16907309 0.33817655
36.575016 -20.097904 20.219383 0.8532238 0.17769417 0.49034062
30.544294 -13.522865 26.155643 0.71054059 0.18647954 0.67849648
38.014843 -1.5640401 -7.9377909 0.96440238 0.16311982 -0.2081348
33.519104 5.1047974 16.070021 0.86043829 0.17648704 0.47801501
25.859762 13.753285 23.771919 0.69417411 0.17127369 0.69913346
33.284569 14.454886 12.68309 0.90220559 0.17942275 0.3922148
32.747208 17.234999 12.596047 0.90720421 0.17744564 0.3814362
31.117474 25.139492 12.897284 0.87701136 0.16965012 0.4495219
31.028515 28.908258 11.655939 0.90325356 0.16066141 0.39789563
29.990271 26.734524 14.547869 0.87887067 0.1457945 0.45423597
30.76082 32.574303 10.605768 0.90747434 0.19437908 0.37243393
33.542133 21.939787 -9.0383816 0.95437568 0.17012055 -0.24541011
31.777792 38.335869 -3.8481524 0.94431317 0.31372952 -0.099229544
-35.947674 -48.928429 -15.158972 0.90545619 -0.27955461 0.31937167
-37.054478 -44.112904 3.1212249 0.94438696 -0.32110196 -0.070900299
23.077997 37.621212 20.400604 0.67388123 0.2457076 0.69678676
-27.159956 -42.255814 -25.192577 0.72391182 -0.26259595 0.63796163
-30.162254 -42.639004 -21.56818 0.76532769 -0.31172451 0.5631175
-22.306959 -39.06237 -28.654678 0.63875777 -0.23364817 0.73307371
-18.384197 -37.254707 -31.106035 0.54480278 -0.2577599 0.797966
-22.743027 -37.828743 -27.846931 0.69611341 -0.16164871 0.69949681
-20.814112 -38.646687 -29.663603 0.56865448 -0.23184973 0.789226
-19.867369 -37.217983 -29.915968 0.54859751 -0.27452755 0.78973126
-21.675856 -35.970688 -28.404902 0.60908371 -0.25856426 0.7497744
-12.703251 -34.828312 -33.664429 0.31421551 -0.30766585 0.89811486
-15.153233 -35.209438 -32.642147 0.44909635 -0.29546365 0.84321624
43.712776 -51.01133 16.261181 0.90063864 -0.13859165 0.41187674
28.061865 -39.180912 34.129807 0.58599019 0.15370439 0.79560691
32.489758 -35.404449 29.556211 0.69627714 0.14966908 0.70199513
31.198435 -32.654781 30.206514 0.67653966 0.15895924 0.71904528
30.7528 -26.815815 29.373137 0.66277134 0.16443065 0.73054552
24.462454 -14.357348 31.552341 0.57067823 0.18161571 0.80083835
26.116135 10.451725 24.37035 0.67249233 0.17633806 0.71878988
23.556345 12.360624 26.182804 0.62158865 0.17219245 0.76418406
27.242987 7.6856236 23.939627 0.69246012 0.18530327 0.69725293
29.963955 -23.454073 29.248531 0.67538953 0.17448358 0.71652246
-2.151834 -51.468929 41.173862 0.056939434 -0.62263131 -0.78044099
-2.7957866 -47.286625 39.307594 0.14935356 -0.36307999 -0.91970998
-34.327263 -49.897911 18.976067 0.81426632 -0.3754383 -0.44273746
-38.986614 -51.828472 -9.2422895 0.68783617 -0.70133692 0.18710427
-17.942938 -51.200661 36.097076 0.42519584 -0.56100202 -0.71027118
-37.250824 -48.98801 -12.172852 0.94584978 -0.13111497 0.29694635
-29.48945 -50.015789 26.095076 0.6942479 -0.41326526 -0.58926356
-29.020935 -49.280544 -26.608353 0.70474356 -0.32430819 0.63099986
-30.70257 -49.756828 -25.09012 0.73520052 -0.22322205 0.6400407
-27.162388 -48.977119 -28.401247 0.64580405 -0.36328572 0.67153597
-25.705269 -49.266796 -29.789532 0.61756784 -0.34407285 0.70726514
-27.043959 -47.397018 -27.675871 0.67000765 -0.33245346 0.66375029
-25.306122 -44.310291 -27.895159 0.65556979 -0.30582759 0.69043303
-36.627678 -50.690472 14.853695 0.8785978 -0.35624555 -0.31804886
28.802891 -50.258358 35.633156 0.5741154 -0.065291651 0.81616694
32.963017 -46.156219 31.377426 0.68662262 0.14980739 0.71141201
-22.947901 -50.169025 -32.668205 0.54900002 -0.32601148 0.76962036
-19.618471 -51.229637 -35.200596 0.47263706 -0.2769455 0.83660948
-17.143076 -48.951725 -35.577332 0.42442802 -0.29422975 0.85632336
-17.928062 -47.56638 -34.686504 0.47325557 -0.29307461 0.8307445
-23.875433 -48.676464 -31.0774 0.59511757 -0.33719796 0.72947413
-20.540709 -48.306431 -33.395885 0.51306742 -0.31099531 0.80002737
-12.039645 -44.538109 -36.348629 0.3155174 -0.27688485 0.9076252
-19.003126 -45.162529 -33.180931 0.49769583 -0.28484049 0.81924647
-21.909245 -46.794765 -31.919039 0.56668049 -0.28772008 0.77206898
-19.967842 -42.888145 -31.803734 0.54259312 -0.28970793 0.78845549
-22.710814 -44.530556 -30.422302 0.60754937 -0.28991574 0.73948127
-8.3397284 -43.544807 -37.15173 0.25228003 -0.26270252 0.93131214
-24.519836 -45.981853 -29.370632 0.63467646 -0.30555746 0.70980304
-14.380338 -42.888809 -34.798626 0.39169446 -0.27494681 0.87805444
-11.965584 -40.989376 -35.29789 0.33839384 -0.25665286 0.90532809
-24.072321 -43.288704 -28.620405 0.65923601 -0.29274812 0.69260848
-22.471933 -41.865505 -29.577288 0.59652197 -0.28408733 0.75063699
-6.3986249 -42.258141 -37.210171 0.15723242 -0.27643567 0.94808298
-8.5392065 -39.588676 -36.025089 0.25530183 -0.226707 0.9399069
-17.478619 -41.342049 -32.866634 0.46684393 -0.27848333 0.83934724
-6.3703194 -40.403225 -36.705441 0.1561292 -0.24831516 0.95601422
-18.513647 -39.133293 -31.416121 0.53153765 -0.25292173 0.80839241
-12.573416 -38.132881 -34.308697 0.36383829 -0.19270571 0.91131014
-15.323634 -38.854244 -33.18327 0.43307519 -0.22242849 0.87348241
-16.398489 -36.948418 -32.247105 0.51883948 -0.21025483 0.82861233
-7.4008708 -36.028908 -35.485394 0.19837928 -0.26561078 0.94344938
-10.150274 -36.725067 -35.009281 0.29852664 -0.2602005 0.91824698
-5.5255065 -38.038689 -36.256802 0.13989979 -0.23641856 0.96152711
-11.401522 -35.528969 -34.064186 0.25830039 -0.35618371 0.8980056
23.242325 -50.17907 39.094639 0.45078582 -0.064145431 0.89032441
22.440666 -48.210155 39.206741 0.44840965 0.13946044 0.8828814
13.600342 -46.967323 42.319767 0.24358609 0.13920973 0.95983672
25.213652 -46.420177 37.410469 0.50362593 0.14838801 0.85108274
10.906189 -33.41095 40.833073 0.19236825 0.15807465 0.96850753
13.530502 -32.00499 39.972534 0.25954583 0.1596081 0.9524501
14.506824 -28.29767 39.050625 0.29318929 0.16917446 0.94096762
14.794274 -23.905424 38.151283 0.30480567 0.1675435 0.93756211
14.223079 -21.179018 37.851463 0.28616336 0.16675808 0.94355828
12.003672 13.218163 32.13908 0.30832091 0.16746023 0.93642688
8.4661627 14.489262 32.699394 0.19320868 0.17450267 0.96551496
11.750931 16.084539 31.661627 0.28420365 0.17699273 0.94228548
14.031768 16.421034 30.851665 0.36235371 0.17959292 0.91457427
3.8058817 38.885262 28.811943 0.081415743 0.30322748 0.9494338
-14.48702 -46.377342 -35.910862 0.38245338 -0.29386923 0.87599677
-11.990555 -47.234467 -37.199928 0.30504179 -0.30066893 0.90363032
-16.788433 -45.916107 -34.690197 0.44059497 -0.2823633 0.85214263
-15.974829 -43.569008 -34.351524 0.40084842 -0.28770542 0.86979663
-3.9552445 -40.818886 -37.093243 0.14736907 -0.25441194 0.95580173
-3.4481566 -38.575623 -36.629391 0.16800058 -0.24267496 0.95545
-1.7436801 -36.529625 -36.49094 0.098297529 -0.28350103 0.95392078
-4.2757936 -36.244209 -35.87027 0.12573203 -0.23721644 0.96328598
4.3051257 -35.63015 -36.252956 -0.050010607 -0.22943731 0.97203779
25.288912 -51.184704 37.41761 0.39637789 -0.7001549 0.59385836
25.754868 -49.951103 37.682625 0.54157984 -0.0064833695 0.84062427
31.287666 -49.275734 33.609013 0.65786469 0.07205683 0.74968112
11.388113 -18.991764 38.247734 0.23692 0.17148688 0.95627463
8.9883509 22.810953 31.123045 0.21896009 0.16358478 0.9619233
16.640015 -51.342216 41.277241 0.15203229 -0.83169353 0.53401512
30.395596 -52.084793 -30.451813 -0.49576226 -0.6381458 0.58905834
32.807949 -52.196476 -28.175724 -0.50962704 -0.69000888 0.51397276
29.7134 -50.068127 -29.679909 -0.60481489 -0.38731065 0.6958372
28.324402 -52.739517 -32.537453 -0.38650495 -0.75379622 0.53141803
23.435625 -50.424881 -34.507946 -0.49124736 -0.3897298 0.77896518
21.604061 -51.053146 -35.690666 -0.38619226 -0.39130479 0.83530599
15.411958 -49.463188 -37.640442 -0.26145586 -0.29936901 0.91761601
26.860353 -50.040195 -31.972538 -0.5346384 -0.38077822 0.75443333
16.556894 -49.843678 -37.62516 -0.34998173 -0.2964209 0.88862109
21.375893 -48.160179 -34.646786 -0.45797125 -0.32046089 0.82919669
18.689564 -49.447712 -36.426987 -0.41185918 -0.30909994 0.85722184
29.449644 -47.086102 -28.56579 -0.64693981 -0.32693747 0.68889821
27.383783 -47.176208 -30.307175 -0.56507385 -0.32798049 0.75704712
37.704063 -46.676544 -17.506237 -0.84785032 -0.32108885 0.42196187
17.902311 -46.581867 -35.80547 -0.40126786 -0.29898763 0.865789
15.738095 -45.241512 -36.262203 -0.31480768 -0.28187099 0.90633595
29.135775 -44.631275 -27.744215 -0.65833998 -0.29044452 0.69442821
20.350592 -46.202648 -34.553978 -0.42977682 -0.2910254 0.85474914
17.978569 -43.039642 -34.625889 -0.40823561 -0.2763786 0.87003362
21.507065 -45.070396 -33.490101 -0.50952834 -0.28712156 0.81113619
20.520012 -42.143639 -33.008446 -0.47548872 -0.25291952 0.84258062
15.723361 -42.266964 -35.511047 -0.349879 -0.29939422 0.88766426
30.500303 -43.332428 -25.783417 -0.70293367 -0.27409935 0.65631825
16.822557 -41.349762 -34.458904 -0.35628828 -0.3101294 0.88140714
4.2989326 -44.027977 -38.510834 -0.070448048 -0.2340574 0.96966708
27.988834 -41.738735 -27.672766 -0.64614367 -0.2613093 0.7170884
25.617956 -42.872334 -30.073072 -0.5841406 -0.2527501 0.77129579
3.0181592 -45.33934 -38.830429 -0.081535719 -0.24076599 0.9671523
24.862772 -38.665665 -29.154303 -0.59936368 -0.23796956 0.7642864
18.792446 -40.157684 -33.491096 -0.4149006 -0.24999546 0.87484843
15.978625 -39.300087 -34.231762 -0.36428604 -0.19054939 0.91158468
14.000962 -38.965115 -35.038506 -0.31992272 -0.19602728 0.92694271
17.349903 -37.804222 -33.4263 -0.41945612 -0.21843717 0.88110256
15.344951 -37.740257 -34.424732 -0.366404 -0.19956255 0.90880305
19.705469 -37.961464 -32.19643 -0.4554953 -0.22881307 0.86033052
24.262968 -36.36253 -29.135044 -0.61314726 -0.18147568 0.76884133
22.456863 -38.358524 -30.919659 -0.51376235 -0.23058775 0.82636398
27.43959 -37.872585 -26.822832 -0.6577881 -0.21273644 0.72253585
17.215267 -36.272083 -33.118076 -0.40729725 -0.19898361 0.8913554
4.6691933 -46.638371 43.590202 0.048437193 0.12844299 0.99053329
-20.07666 -51.072723 38.244339 -0.45555636 -0.11801752 0.88234925
-38.847374 -44.039459 15.996367 -0.81216717 0.028476352 0.5827294
-38.984932 -41.79525 16.338512 -0.26124591 -0.16513701 0.9510417
-47.102665 -42.519657 14.059851 -0.12900233 -0.74651355 0.65274495
-13.711422 -39.236504 39.47723 -0.38116977 0.1404649 0.91377193
-30.600271 -28.946674 25.094509 -0.77878499 0.15731977 0.6072433
-22.10421 -30.344965 33.450863 -0.56719416 0.15314718 0.80921984
-63.247688 -34.505016 14.413835 -0.50504881 -0.078390114 0.85952359
-24.923481 -21.445887 29.333162 -0.66279984 0.16004679 0.73149264
-13.575757 -17.36668 35.818153 -0.39386967 0.17432025 0.90248495
-63.665054 -22.468119 14.113729 -0.26306781 0.046940558 0.96363467
-23.823748 -8.9064074 27.464661 -0.66571808 0.16950896 0.72669536
-65.539833 -16.852262 12.856456 -0.75035506 0.026823541 0.66049045
-14.704043 -4.1498098 32.65649 -0.45615748 0.17323843 0.87287384
-19.762682 -2.0881634 29.217911 -0.58414209 0.17910632 0.79164326
-7.9685016 -50.538864 39.573799 0.20567995 -0.40914994 -0.88898373
-20.282688 11.248252 25.794821 -0.62921387 0.17431352 0.75743294
-9.8820286 15.331881 30.997559 -0.32683921 0.1784946 0.92807096
-66.068146 8.3116055 12.225399 -0.58240932 0.0040713162 0.81288552
-12.029872 16.518362 29.898838 -0.43020207 0.17387719 0.88582891
-22.860439 17.552589 21.80057 -0.71850359 0.15982091 0.67691201
-15.587222 26.038801 26.134674 -0.5421285 0.16048633 0.82482773
-7.7815766 27.255535 29.623684 -0.30137962 0.16764852 0.93865025
-20.737968 34.672657 19.773634 -0.71256417 0.1869266 0.67624754
-63.66251 -8.4377069 -5.2747421 0.25770751 0.10219871 -0.96080291
-35.524773 -48.615032 15.397683 0.8480882 -0.36527514 -0.3838236
40.823936 -49.54739 -21.68693 0.85584855 0.10274424 -0.50691897
-38.922398 -51.110157 8.0177479 0.85641044 -0.47156802 -0.21020159
-39.083584 -49.903355 4.3691311 0.9274686 -0.34624818 -0.14111769
-35.121681 -50.248543 -18.557158 0.85488039 -0.24417558 0.45777476
1.011664 -51.904556 42.09771 -0.0081725661 -0.99282163 -0.11932474
-2.733093 -50.807793 40.698597 0.092792213 -0.38380629 -0.91873956
-2.3560622 -51.869926 41.906975 -0.015464845 -0.99770969 0.065849185
26.332741 -51.536221 -36.37669 0.41399452 -0.27965766 -0.86625636
-35.724777 -51.977726 18.38028 0.70000905 -0.62369508 -0.34783885
25.674019 -50.929935 -37.432381 0.50216514 0.037150435 -0.86397344
-38.143188 -49.646339 -9.2864828 0.91760939 -0.28701356 0.27498403
-27.529272 -50.298225 28.361719 0.64297229 -0.38667899 -0.66110963
-27.540438 -50.862072 -29.072931 0.65743411 -0.29586172 0.69299793
-23.915268 -51.410316 -32.515034 0.45599535 -0.47087708 0.75521064
-17.045439 -50.860489 -36.089764 0.41816986 -0.32959557 0.84646368
-11.794835 -51.526329 -38.605812 0.3111589 -0.30502346 0.90007824
-14.252409 -50.962475 -37.632271 0.36519951 -0.33743602 0.867621
-14.646656 -49.273636 -36.876762 0.38285872 -0.29145896 0.87662464
-8.5490732 -51.140312 -39.703022 0.24275607 -0.30142778 0.92206877
-12.043529 -49.816715 -38.034447 0.30338305 -0.29137394 0.90722656
-7.2881694 -49.070141 -39.130981 0.18071288 -0.31771794 0.93080509
-9.2283516 -48.616329 -38.50563 0.27245459 -0.3210474 0.90702647
-4.9276218 -47.368927 -39.016373 0.15042114 -0.31261474 0.93789423
-5.0575714 -45.284298 -38.374981 0.17822093 -0.28000081 0.94331163
-8.3794279 -46.427349 -37.94696 0.23579235 -0.29185218 0.92694354
12.392179 -49.373951 43.00713 0.22598131 0.040377464 0.97329444
10.356788 -48.14426 43.19643 0.16792116 0.15806904 0.97304505
-59.306293 -11.63409 11.88735 0.6991123 0.085533842 0.70987743
-60.350266 -8.3947315 12.466353 0.60118419 0.086132824 0.79445493
-60.439091 -0.81926084 11.601645 0.67712867 0.10782714 0.72792178
10.148381 -52.184124 -40.253307 -0.17838894 -0.45369914 0.87311774
2.5291998 -51.730259 -40.789532 -0.049599782 -0.46968377 0.88144034
-4.3909607 -51.804893 -40.68602 0.10065809 -0.45761916 0.88343227
14.033651 -49.85376 -38.381004 -0.31772628 -0.35100019 0.88082278
3.6394312 -49.971863 -40.400318 -0.17753381 -0.28275993 0.94261795
-4.2909608 -49.866001 -39.982838 0.1318302 -0.30814004 0.94216263
16.092356 -46.728951 -36.754467 -0.29935721 -0.29999161 0.90575397
11.025091 -48.90004 -38.94981 -0.22526753 -0.32375416 0.91893297
-2.3906236 -48.579823 -39.750103 0.097860247 -0.29083326 0.95175594
11.907092 -46.118587 -37.740509 -0.25178507 -0.29050121 0.92315406
8.458684 -46.643742 -38.761562 -0.11479679 -0.27760103 0.95381308
6.1334949 -44.955322 -38.467712 -0.089352496 -0.18433791 0.97879297
-0.99068451 -45.728752 -38.975857 0.083184943 -0.30293125 0.94937497
12.460076 -43.636185 -36.850227 -0.27829623 -0.27631444 0.91989213
8.453908 -44.843773 -38.108719 -0.1662751 -0.28630206 0.94360143
9.9278011 -43.297916 -37.436428 -0.20735025 -0.27933174 0.93753916
1.1454313 -46.291962 -39.154469 -0.015927007 -0.30964869 0.95071763
-3.8367932 -44.243763 -38.124035 0.1241109 -0.2913467 0.94853234
13.60818 -42.272953 -36.049469 -0.27256343 -0.27171665 0.92297298
1.7393159 -42.483818 -38.0331 0.0022388701 -0.27187213 0.96233076
0.56328911 -40.645191 -37.579395 -0.0042032837 -0.24640477 0.96915793
-1.7141727 -42.909096 -38.095802 0.07840465 -0.2658605 0.96081781
8.5833445 -41.907616 -37.201523 -0.17928627 -0.26672122 0.94695103
11.606037 -40.601547 -36.167908 -0.25648522 -0.24921089 0.93386793
3.7594802 -41.468716 -37.699009 -0.047701947 -0.2739608 0.9605571
-1.8601271 -39.547829 -37.21698 0.10497418 -0.24842991 0.96294492
9.1071091 -39.909012 -36.654179 -0.18844487 -0.22929703 0.95494056
6.3753362 -41.935585 -37.60099 -0.13127598 -0.26554063 0.95512027
7.4891381 -38.665459 -36.558899 -0.15684161 -0.23167782 0.96006566
5.0433645 -39.162231 -37.014755 -0.090979867 -0.23379792 0.96801925
11.485123 -38.396111 -35.755135 -0.2595064 -0.23368455 0.93704218
9.410264 -36.938389 -35.821297 -0.18219393 -0.25412646 0.94985527
3.5696392 -38.404572 -36.87804 -0.057701886 -0.22380097 0.97292531
1.7013831 -38.278648 -37.067238 -0.0014797481 -0.25017056 0.96820068
0.011670765 -38.697723 -36.984249 0.028607061 -0.27597618 0.96073866
12.065519 -35.936172 -34.880951 -0.29375526 -0.19365168 0.93605924
8.8260384 -35.584564 -35.56319 -0.22325467 -0.19611998 0.95482689
33.754776 -51.198742 30.545067 0.54862946 -0.60967922 0.57209873
32.087925 -51.465115 31.461319 0.3335855 -0.87425727 0.35269663
29.915876 -51.009834 34.502968 0.59975582 -0.25504148 0.75845033
27.203405 -51.305756 35.768784 0.4707149 -0.49832964 0.72807634
-52.526482 -40.706921 15.075807 -0.033763826 -0.48189738 0.87557685
-43.770729 -41.595734 15.367897 -0.18453142 -0.40844736 0.89393449
3.0955071 -50.240421 44.150928 0.027164651 -0.060601123 0.9977923
-43.111156 -39.379627 15.966873 -0.11661305 -0.04971103 0.99193257
-1.4767065 -50.139065 44.066441 -0.062617689 -0.059422668 0.99626702
-38.396259 -38.993164 16.511629 -0.47730267 0.083645195 0.874749
-44.516464 -37.891544 15.734854 -0.086629316 0.14566948 0.9855333
1.6213157 -47.262177 43.7677 -0.01994806 0.13759677 0.99028742
-53.683285 -39.307301 15.491292 -0.054782256 -0.073969796 0.99575472
-14.50421 -45.244907 40.094593 -0.37247753 0.14441074 0.91673666
-40.189831 -37.678364 16.247526 -0.12343289 0.056819309 0.99072492
-47.296661 -34.713615 14.091415 -0.054416139 0.61636931 0.78557479
-41.50766 -36.28709 15.811354 -0.16548297 0.23082362 0.9588201
-59.685356 -37.195072 15.136913 -0.10804514 -0.056342077 0.99254817
-7.3908939 -44.325089 42.247391 -0.22487265 0.14093085 0.9641425
-10.43347 -43.391975 41.304386 -0.29876003 0.13970165 0.94404757
-38.534237 -35.504665 16.147861 -0.26841944 0.20210448 0.94186234
-59.740623 -32.796799 14.980655 -0.039839972 0.074238434 0.9964444
-11.246454 -40.43996 40.603916 -0.30378982 0.14499605 0.94164109
-61.268795 -27.623327 14.612917 0.10069884 0.087866016 0.99102932
-12.458488 -37.138046 39.661831 -0.34799337 0.15408534 0.92474771
-7.7925401 -35.803864 40.854744 -0.22781143 0.1516774 0.96181911
-11.018282 -21.83107 37.580078 -0.31905359 0.16381899 0.93347108
-11.003482 -18.142155 36.939209 -0.31654367 0.17082229 0.93307006
-14.370545 -20.487967 36.023312 -0.39240503 0.16506135 0.90486073
-7.9532061 -21.165087 38.405891 -0.2498862 0.16539222 0.95404524
-65.090157 5.7612696 12.611092 -0.11840247 0.042797163 0.99204296
-12.703381 -1.3178234 33.031963 -0.37822178 0.17049745 0.90987849
-4.7274976 16.349703 32.311409 -0.20531711 0.17929229 0.96213263
0.17667413 26.319126 31.24098 -0.037060428 0.16812207 0.98506927
-6.0979815 29.946281 29.644049 -0.26742542 0.16502045 0.94934285
-9.4488468 32.492393 28.096985 -0.36690202 0.17366874 0.91390485
4.0168562 -47.183453 -39.182064 -0.14527382 -0.35360932 0.92404324
-7.5272956 -51.583466 42.794899 -0.188201 -0.56034321 0.80659521
43.697041 -51.001595 3.8694909 -0.71595144 -0.69789147 -0.019000975
43.44677 -51.120487 -4.5815578 -0.83869594 -0.53376406 0.10809734
43.027832 -51.113754 -7.2999558 -0.80399227 -0.57418132 0.154636
44.03194 -51.441792 0.89924783 -0.76754469 -0.64069945 -0.019477848
42.653156 -48.851612 4.0185938 -0.91499841 -0.39814189 -0.065277226
42.921124 -49.091869 0.67200005 -0.91974789 -0.39219546 -0.015703434
42.618641 -49.662941 7.2913685 -0.87686038 -0.45245036 -0.16249469
41.881298 -50.04884 10.898883 -0.86527145 -0.43456361 -0.2499194
41.552517 -47.518768 8.3996258 -0.90974218 -0.35765177 -0.21084222
42.648537 -48.948105 -3.8233922 -0.92022914 -0.37410989 0.11497865
41.798687 -46.49894 4.3847079 -0.93413574 -0.34195435 -0.10226283
42.255909 -47.408714 1.4282873 -0.93864459 -0.34381962 -0.027101558
40.510666 -47.416908 11.914814 -0.8914482 -0.35063773 -0.28700727
42.098755 -46.983318 -1.5195804 -0.93478149 -0.35159668 0.050628867
35.998344 -46.980843 21.125368 -0.78839433 -0.34462425 -0.5095768
41.732605 -47.316959 -6.0022683 -0.92305702 -0.35166043 0.15588659
39.303329 -46.288654 13.997276 -0.87575608 -0.33498535 -0.34761497
40.856945 -45.674904 8.1789951 -0.92654711 -0.33036363 -0.1799178
41.23167 -45.531818 -5.2182002 -0.94032568 -0.31305218 0.13336332
39.898991 -44.442085 10.189352 -0.91093963 -0.32358447 -0.25589481
40.119312 -43.167015 7.6768398 -0.93370366 -0.30749908 -0.18341683
40.33292 -42.54649 -4.7193556 -0.94987559 -0.29667324 0.098597407
40.987499 -43.807224 -1.4881748 -0.9514662 -0.30485839 0.04211228
-69.053474 17.533964 1.2058175 -0.99403125 -0.058270305 -0.092230849
40.57103 -42.451031 2.4586782 -0.95520818 -0.28746516 -0.070292242
39.433002 -40.763721 7.606493 -0.94982827 -0.2517812 -0.18555978
39.981228 -40.240047 -0.075358644 -0.96543258 -0.259637 0.02299325
