# .PCD v0.7 - Point Cloud Data file format
VERSION 0.7
FIELDS x y z normal_x normal_y normal_z
SIZE 4 4 4 4 4 4
TYPE F F F F F F
COUNT 1 1 1 1 1 1
WIDTH 725
HEIGHT 1
VIEWPOINT 0 0 0 1 0 0 0
POINTS 725
DATA ascii
21.456049 13.42276 26.311802 0.643457 0.20367463 0.73788875
-54.590996 -19.628424 45.750107 0.86404431 0.016243739 0.50315362
23.24682 6.0791287 26.65214 0.66630828 0.18408729 0.72259611
-54.314049 -22.356749 42.411648 0.96890962 0.17301622 -0.17686044
-53.574055 -25.726572 44.11787 0.95884413 0.16307621 0.23243043
-56.375103 -24.438686 38.007141 0.80929101 0.23812036 -0.53697944
-54.618362 -22.710058 41.33049 0.84920198 0.17597662 -0.49788374
-53.541866 -25.528954 42.174911 0.90635717 0.29417449 -0.30327877
24.582287 3.0997169 26.097956 0.69210923 0.15857592 0.70415807
-53.152855 -27.705006 41.029224 0.89447373 0.3574965 -0.26853871
-52.499077 -28.720345 43.204418 0.94390905 0.25093946 0.21462776
-52.388615 -29.924322 43.488014 0.89234602 0.22933902 0.38874435
24.357578 -0.36864337 27.061838 0.68208587 0.15013227 0.7156949
-49.532722 -32.892361 40.482639 0.68685728 0.54484797 0.48100707
-48.994511 -34.709526 41.772442 0.58846718 0.069498986 0.80552852
-47.866081 -34.403439 40.046261 0.70458138 0.42104688 0.5712133
-45.127861 -35.845951 37.747868 0.58520168 0.5206117 0.62169319
25.451387 -7.3858724 27.355263 0.68766993 0.12075973 0.71590996
-46.120857 -36.34763 38.980034 0.65199447 0.54214483 0.53007752
24.372499 -10.021412 28.813965 0.67380339 0.11156595 0.73043954
28.762003 -14.973575 24.920277 0.77722532 0.079378888 0.6241954
27.311066 -13.375038 26.372559 0.73499817 0.086116463 0.67257833
24.350309 -16.937748 29.841505 0.67620605 0.080858044 0.73226178
22.863132 -18.92001 31.341063 0.64174688 0.078378901 0.76290089
25.647743 -26.794111 29.518745 0.70517045 0.058917027 0.70658565
27.714199 -28.478508 27.470102 0.75089478 0.051349699 0.65842259
23.578156 -30.050014 31.662397 0.65182543 0.052262675 0.75656611
18.863798 31.276129 22.582764 0.63361073 0.2667881 0.72619659
15.265152 48.926868 16.13855 0.32115269 0.858805 0.39914274
12.299492 46.943218 21.251667 0.4446089 0.59828746 0.66661459
15.2616 45.087105 20.104134 0.58156055 0.35108879 0.7338419
12.818629 44.444828 22.19499 0.52847433 0.35567716 0.77084929
18.955757 39.755138 19.197752 0.6498245 0.29839242 0.69906366
30.04318 22.577524 11.819795 0.90168977 0.23963025 0.35990685
15.146611 49.390343 14.447254 0.36371389 0.86255431 0.35172746
15.756625 47.267925 18.485119 0.52530921 0.58121747 0.62147939
21.723772 47.283981 11.565932 0.70290279 0.61671662 0.35438427
19.132536 46.755859 15.54388 0.62849569 0.53744221 0.56227118
20.841562 45.664871 14.401213 0.74182582 0.37379563 0.55675066
18.042168 44.714806 17.78161 0.64557427 0.35707337 0.67507952
23.765511 43.187008 11.353041 0.84214294 0.36255613 0.39918455
16.614546 42.298218 20.196337 0.60713118 0.30688348 0.73294908
22.059095 42.455551 14.614857 0.75886232 0.32221839 0.56595337
20.348591 42.834305 16.431425 0.68639839 0.31722495 0.65438944
23.125538 41.108761 13.945304 0.76618421 0.31491494 0.56016988
22.763065 36.666237 16.625191 0.72502989 0.29150504 0.6239844
24.402767 38.456512 13.593746 0.81266785 0.30131906 0.49877626
21.37216 38.67905 17.259727 0.70294917 0.29444125 0.64743084
26.207151 36.281006 11.578619 0.89099121 0.28378278 0.35440379
22.794935 32.635574 18.340939 0.70474523 0.26376754 0.65860522
24.287834 34.264664 15.933964 0.77189219 0.27811056 0.57169658
26.419319 34.274467 12.583536 0.86968833 0.27764434 0.40811256
26.04204 31.706627 14.72436 0.81798065 0.25568399 0.5152992
23.139654 27.401993 20.000185 0.7004987 0.25470287 0.66665441
24.39743 30.597977 17.325872 0.7431851 0.25154668 0.62000006
26.991638 28.441046 14.71917 0.81294936 0.24555728 0.52802926
21.627661 28.929983 20.917048 0.66940165 0.26279229 0.69486809
25.354046 27.086531 17.621168 0.77036411 0.24489792 0.58869702
28.105066 26.245937 13.963199 0.85574996 0.24430798 0.45607632
22.466877 24.69816 21.689533 0.69511276 0.24855176 0.67456681
25.790945 24.436533 18.146147 0.75874871 0.24558505 0.60331446
24.741695 22.253443 20.167048 0.72239733 0.24204521 0.64773148
28.360773 23.305157 14.956834 0.83214569 0.23449193 0.50254059
26.625452 21.764095 18.147993 0.78480321 0.22621223 0.57698524
29.554867 21.101297 13.868221 0.86636287 0.22138199 0.44766656
24.286072 20.507101 21.292847 0.71429169 0.23309866 0.65988815
30.741852 18.833271 12.268813 0.92830646 0.21658185 0.30222395
30.336199 17.540453 13.96378 0.88432676 0.20294103 0.42045346
26.812212 18.148733 19.229584 0.76378149 0.21580239 0.60833132
28.741278 18.707106 16.303116 0.82196736 0.21700993 0.52657044
24.020506 17.134535 22.770855 0.70715374 0.22423166 0.67056233
29.835348 15.320367 15.909766 0.83813924 0.20695275 0.50467145
27.154028 15.303077 19.820547 0.77786034 0.21701516 0.58977759
29.036457 13.949262 17.754612 0.81516695 0.19774757 0.54442507
27.206068 13.359324 20.34609 0.76574546 0.19274591 0.61358207
25.406857 13.849819 22.299511 0.71579188 0.20836766 0.66650194
29.202881 11.845904 18.199175 0.81641489 0.17999877 0.54869586
33.066307 11.140578 9.5540123 0.96760619 0.17548566 0.18150192
30.949646 12.104702 15.164419 0.86281216 0.18216451 0.47156271
27.501478 8.4737873 21.516445 0.76485044 0.18346886 0.61752969
25.537685 11.091043 23.037945 0.72161841 0.19296791 0.66485357
31.508442 9.7045965 15.021109 0.87526673 0.16507342 0.45459762
25.527885 7.6481595 23.933962 0.70708543 0.18352425 0.68289751
29.639343 6.686162 19.240185 0.82842231 0.16518366 0.53519237
24.959389 5.6131721 25.138475 0.711532 0.18418849 0.67808318
27.83894 5.426424 21.956039 0.75206053 0.1791226 0.63428712
26.310919 3.9168808 24.118715 0.73318404 0.16515018 0.65967155
31.868732 4.486681 16.153719 0.8713932 0.14878465 0.46747944
26.26379 1.4021401 24.743332 0.71045709 0.15319328 0.68686432
27.338711 0.37012276 23.822216 0.7590695 0.14372608 0.63494593
28.769281 3.3938844 21.392262 0.80190009 0.15554586 0.57685506
31.715885 2.3257551 17.1745 0.85985309 0.15066108 0.48780522
29.570238 0.74526548 20.933973 0.8109749 0.14009604 0.56806058
32.885479 0.33474627 15.260321 0.91730684 0.10892181 0.38299382
26.081059 -1.5578308 25.601933 0.71450889 0.14451225 0.68453872
31.65686 -0.72025806 18.080889 0.87179089 0.13061054 0.47214568
33.946239 -2.6632197 13.387147 0.94324547 0.11633313 0.31105414
29.993334 -2.5055563 21.098852 0.80236351 0.13550356 0.58125001
32.852913 -3.4710736 16.542267 0.90519279 0.13338926 0.40352622
28.143185 -3.6043479 23.748011 0.7641564 0.13203071 0.63137382
30.256689 -5.186758 21.293312 0.81422496 0.11628832 0.56878352
32.57869 -5.4831114 17.536146 0.8780086 0.10786016 0.46633369
28.363058 -7.4673514 24.224449 0.76795143 0.11371164 0.63033336
31.467981 -7.5770111 20.002369 0.8467052 0.11797965 0.51881713
29.889702 -8.8611498 22.521488 0.79343408 0.10770652 0.59905064
31.748672 -9.7719402 20.014488 0.84602177 0.095462479 0.52453238
34.435509 -11.115686 14.517865 0.94450021 0.07154578 0.32062533
29.188593 -11.215401 23.869946 0.78107101 0.10276857 0.61592758
32.074871 -13.042813 19.970072 0.85809189 0.07253252 0.50834775
35.214497 -13.097351 12.310081 0.97116148 0.061478987 0.23036022
34.257408 -18.326256 16.227612 0.93058437 0.047797363 0.36294368
31.388723 -19.933285 21.916807 0.83579975 0.04453706 0.54722494
34.608273 -23.948225 15.936319 0.94374728 0.038169563 0.32845727
28.499653 -24.215025 26.241081 0.76369607 0.056015722 0.64314115
35.500126 -27.458693 13.616817 0.95840794 0.021149924 0.28461713
31.248346 -26.118853 22.666317 0.83860153 0.049764924 0.54246753
31.106588 -28.582674 23.17474 0.84006375 0.034725491 0.5413751
34.085655 -38.0662 17.878876 0.9054901 0.014255451 0.424128
33.185776 -36.192234 19.803732 0.89595777 0.0068316697 0.44408667
20.747492 34.456741 19.673983 0.66976947 0.27529916 0.68965155
35.683754 -23.506376 12.508338 0.96767694 0.037565738 0.24937947
25.400188 38.87104 -0.069762245 0.91135317 0.31658292 -0.2630794
26.731516 37.764477 3.7387247 0.94225943 0.30784017 -0.13183901
27.960966 34.097401 5.4425282 0.95790648 0.28326899 -0.046623841
27.247488 35.71526 8.6369677 0.93820602 0.2863709 0.19432248
29.516802 27.888901 8.261878 0.95828003 0.25988731 0.11898679
30.034939 24.595947 10.119562 0.93285763 0.25061992 0.25877854
30.891937 20.888567 10.313313 0.95145833 0.2196136 0.21563111
31.284126 21.389351 6.859158 0.97026539 0.23490858 0.058335513
31.829971 18.187883 8.609005 0.97048831 0.20463331 0.1275842
32.552471 15.109984 7.6687851 0.973746 0.20978063 0.08837913
32.983067 13.500797 5.651196 0.9825331 0.18584196 -0.0095644509
31.657751 13.20653 13.141755 0.91988099 0.18050998 0.34818834
33.029636 2.5131328 14.080498 0.92251712 0.13143507 0.36288685
33.917461 0.3237634 12.304973 0.95079184 0.11933068 0.28592846
34.713539 -2.1407721 10.37554 0.97665775 0.10184363 0.18912296
33.999172 -5.2575173 14.228967 0.9326632 0.10805003 0.34418696
35.626923 -7.9035516 8.3933172 0.98802185 0.081988841 0.130731
35.234047 -10.3883 11.419329 0.97420603 0.064362898 0.21628696
35.893215 -25.994825 11.885714 0.97808498 0.02495661 0.20670472
32.760479 6.3166137 -3.5482967 0.95172292 0.16949069 -0.25592247
-1.6809243 49.994392 -21.601561 0.015862588 0.87537283 -0.48318803
10.823325 48.198185 -18.54455 0.51966757 0.68942201 -0.50462157
7.7116761 48.606899 -20.704365 0.3513155 0.81117707 -0.46751383
6.063448 47.548283 -23.370306 0.37963536 0.67210245 -0.63573211
11.984188 46.681953 -18.691254 0.67998254 0.39124095 -0.6201244
8.179944 47.263969 -22.033646 0.57353532 0.46508494 -0.67435402
5.8561749 45.242737 -24.763853 0.45153877 0.38112956 -0.80675465
8.7331314 43.677574 -23.289209 0.59685183 0.32683253 -0.73276758
10.019124 45.352005 -21.373434 0.64628953 0.36994806 -0.6674192
12.207623 43.028416 -20.251312 0.69931734 0.3048017 -0.64656878
9.8252363 41.505596 -23.319654 0.64842868 0.30667078 -0.69677341
-1.4640912 38.890816 -28.783882 -0.055243824 0.31309134 -0.94811493
1.4590359 40.614998 -28.094101 0.13551399 0.33378255 -0.93285859
7.8546038 38.818157 -26.046989 0.53357863 0.30375391 -0.78932083
11.024444 36.464424 -24.389866 0.6475544 0.29353157 -0.7032159
12.417463 33.401424 -24.232254 0.69427806 0.27838978 -0.66368449
8.3000536 33.468323 -27.752573 0.5233115 0.27917123 -0.80511391
5.4864907 35.20084 -28.689402 0.42606068 0.28047144 -0.86012095
14.569523 32.136028 -22.474485 0.72558421 0.27724299 -0.62981254
9.8717756 28.404388 -28.248207 0.56092471 0.24664505 -0.79027194
4.647511 30.774992 -30.323717 0.31765658 0.25693128 -0.91273248
10.623366 30.755896 -26.902462 0.62174201 0.25656822 -0.74000651
7.3573275 30.053205 -29.389797 0.44738758 0.25839481 -0.85619885
8.0544634 26.892347 -29.848497 0.47902521 0.23515184 -0.84571767
13.994114 26.718014 -25.298727 0.69442654 0.25980356 -0.67102456
12.431334 26.399143 -26.867655 0.62785941 0.24422811 -0.73901635
5.6331401 26.050392 -31.303553 0.3580744 0.23602642 -0.90336823
5.6130919 21.960653 -32.267525 0.33019823 0.22009787 -0.9178921
17.213505 22.311239 -23.616905 0.70532846 0.25409377 -0.66177648
9.8307381 24.044621 -29.659513 0.52212149 0.23369381 -0.82022941
7.7878556 21.649818 -31.491913 0.44324946 0.22497001 -0.86770868
15.287252 20.998083 -25.988792 0.66725487 0.23702769 -0.70610821
14.231426 23.846434 -26.055946 0.67470944 0.23881486 -0.69837999
1.8000025 21.874462 -33.296108 0.083231889 0.22369716 -0.97109836
10.584378 20.607868 -30.023975 0.56015837 0.21075211 -0.80112803
12.799395 21.568764 -28.048729 0.62298542 0.22629583 -0.74878532
9.6418104 18.728806 -31.124306 0.51476032 0.20272543 -0.83302122
12.914643 17.482536 -29.140663 0.59815329 0.21343619 -0.77243614
6.6044126 16.924326 -33.100643 0.35726953 0.20366099 -0.9115265
15.292817 15.359821 -27.746078 0.65875107 0.19860369 -0.72567451
8.3308706 13.908336 -32.995995 0.38279355 0.17692809 -0.90673339
10.22381 15.438691 -31.582066 0.51392162 0.19754827 -0.83478093
13.383861 14.535027 -29.608013 0.60293937 0.20064342 -0.77214396
9.7928705 12.255145 -32.510361 0.48301461 0.16834198 -0.85927755
15.268225 11.032644 -28.908096 0.64334834 0.18553877 -0.74275059
13.316219 10.690776 -30.578632 0.58104032 0.18065582 -0.79357135
6.2168145 10.862029 -34.406296 0.31431961 0.16585921 -0.93471593
10.534851 9.671134 -32.657681 0.47564662 0.17637113 -0.86177349
9.3762989 7.5721307 -33.607208 0.42733595 0.13379827 -0.89413762
13.018915 7.5917344 -31.452898 0.56751013 0.16359273 -0.80695087
15.699383 5.7621894 -29.788712 0.62132686 0.16462165 -0.76606303
7.2397895 5.7120953 -34.824921 0.33814257 0.12632373 -0.93257809
21.538643 4.7055721 -24.252243 0.74398947 0.16526634 -0.64743084
11.231458 6.6649384 -32.793903 0.48112252 0.12423839 -0.8678053
13.421351 4.8816786 -31.683956 0.54736388 0.14679693 -0.82391959
8.5050621 4.0364947 -34.546017 0.40856248 0.13653302 -0.90246075
17.759886 3.1319554 -28.560425 0.67296869 0.15702052 -0.72281241
11.968213 3.4461493 -32.937714 0.52183318 0.16763064 -0.83641505
13.182364 1.4409702 -32.456005 0.53197944 0.13862911 -0.83533216
15.961183 1.5501608 -30.405649 0.61174566 0.1466531 -0.77734166
10.63557 2.6495805 -33.74057 0.44955486 0.11952917 -0.88521934
8.3627586 1.5220459 -34.937344 0.36217162 0.11485013 -0.92500877
14.227855 -0.33570367 -32.087864 0.56464416 0.1311765 -0.81484336
22.627937 0.20183633 -24.083893 0.75008816 0.15345478 -0.64328802
18.316422 -1.050904 -28.882109 0.67461759 0.13918333 -0.72492707
11.592282 -0.7764073 -33.71489 0.4586319 0.12438215 -0.87987834
16.632835 -2.5884376 -30.608017 0.61699015 0.1247049 -0.77702755
19.119427 -4.9899883 -28.828777 0.67204601 0.11944075 -0.73081332
13.094615 -2.9414425 -33.205532 0.52067322 0.11069585 -0.84654933
10.387999 -3.5935955 -34.702305 0.4095585 0.10897309 -0.90575194
17.081623 -5.0354815 -30.604265 0.62257451 0.11113622 -0.77462876
14.681258 -4.8651586 -32.422039 0.55494535 0.10578482 -0.82513344
8.7158909 -5.4956088 -35.582832 0.34204754 0.089592561 -0.9354018
11.335835 -6.2522326 -34.526947 0.45201761 0.089252561 -0.88753259
15.940146 -7.3076763 -31.768475 0.59474832 0.10127323 -0.79750741
17.902246 -7.0358596 -30.232447 0.64193141 0.092638947 -0.76114523
9.6401119 -9.3107357 -35.563259 0.37965673 0.084065937 -0.92129993
13.369943 -8.0525818 -33.638519 0.50144511 0.093327917 -0.86014116
17.873676 -8.6155052 -30.355473 0.64240861 0.11349594 -0.75791156
17.264835 -10.117915 -31.234251 0.60153949 0.10654316 -0.7917062
10.958762 -12.428122 -35.333775 0.40579969 0.079189472 -0.9105249
20.424383 -13.781989 -28.911045 0.67598164 0.10475143 -0.72943538
15.725244 -14.221511 -32.781418 0.55442065 0.08237201 -0.82815009
14.243003 -11.171082 -33.39798 0.52658415 0.084041685 -0.84595871
17.827719 -12.475772 -31.035124 0.62539917 0.095758766 -0.77440691
24.054596 -13.637304 -25.143465 0.74663955 0.10905027 -0.65622962
18.702349 -15.978868 -30.723343 0.61539865 0.076756336 -0.78446984
12.382557 -15.091466 -34.820576 0.46933857 0.065694854 -0.88057119
16.010239 -17.007891 -32.837646 0.55085254 0.066534422 -0.83194631
19.486368 -21.337481 -30.540701 0.63161999 0.077384733 -0.77140641
10.940669 -18.119366 -35.701416 0.4017435 0.052478071 -0.91424733
13.806361 -18.780811 -34.268959 0.50164449 0.057908133 -0.86313343
10.262805 -21.539717 -36.129765 0.37207496 0.036833689 -0.92747158
17.285278 -23.37381 -32.430908 0.56584597 0.057352517 -0.82251382
14.303073 -23.635143 -34.309444 0.49393725 0.046204835 -0.86826903
14.389655 -27.583899 -34.432446 0.49052995 0.034385476 -0.87074566
12.137913 -28.978102 -35.621708 0.4125945 0.02648587 -0.91052973
19.924824 -30.775864 -30.967802 0.61201406 0.053657442 -0.78902453
24.17481 -29.768444 -27.128485 0.70681721 0.080221571 -0.70283288
14.113748 -31.565168 -34.730415 0.46354482 0.031612851 -0.88550943
22.082348 -31.869371 -29.3018 0.65116215 0.06269259 -0.7563448
11.313175 -33.263657 -36.06665 0.39008641 0.021983236 -0.92051584
21.362806 -35.48056 -30.172443 0.63234627 0.039808717 -0.77366239
12.441628 -36.215557 -35.666924 0.39306664 0.01499093 -0.91938782
17.558058 -41.198734 -33.067127 0.54503298 0.032557812 -0.8377822
-22.279137 50.581104 -8.3856268 -0.08151453 0.99303126 -0.085113093
-3.3363721 -50.060745 -39.053509 -0.013771179 -0.08674033 -0.99613577
-6.1393895 -50.817234 -38.90596 -0.035133556 -0.20042437 -0.97907901
1.5868585 50.051403 19.281521 0.00069001282 0.94846439 -0.31688279
2.8976889 49.276958 17.95046 0.38292024 0.8034479 -0.45589867
-18.472271 49.681965 13.681447 -0.19753702 0.9044742 -0.37802845
13.972049 50.453533 -4.2379556 -0.057717465 0.99421853 -0.090543881
13.861185 49.825188 -7.2306647 0.036694016 0.93775916 -0.34534222
13.471445 49.009724 -7.424273 -0.54084373 0.63229191 -0.5547027
-24.182505 50.209915 -7.7336016 -0.14475507 0.97898203 -0.14366665
-24.527426 50.007698 -9.6610231 -0.28533575 0.91066116 -0.29879737
-20.470444 50.128315 -12.057773 -0.051536471 0.96041161 -0.27377641
-18.131334 49.504543 -13.713033 0.21987361 0.94897842 -0.22604311
-19.529016 49.209801 -14.634939 -0.11665747 0.8940742 -0.43246093
-17.428301 48.791771 -15.207175 -0.029902212 0.98439413 -0.17341846
-18.990219 48.448391 -16.244501 -0.22990368 0.87848389 -0.4188202
7.1891174 49.247177 -19.470577 0.30367801 0.87512892 -0.37673464
3.6361232 49.881176 -20.519426 0.23437911 0.87766987 -0.41804546
-1.8401972 48.202507 -24.637714 -0.0305018 0.82453316 -0.56499088
-0.89358228 47.033989 -25.725895 0.013107399 0.47155687 -0.88173825
1.8419542 48.29847 -24.411234 0.13945626 0.71835905 -0.68155134
2.4244435 44.636776 -26.348804 0.23565637 0.4001193 -0.885647
-14.574813 44.4137 -22.228962 -0.43627098 0.31799608 -0.84175187
5.8824706 42.377594 -25.929651 0.46715295 0.33620939 -0.81775999
4.7553129 40.633488 -27.145123 0.35418573 0.3231495 -0.87756872
-4.3119745 37.927078 -28.598579 -0.21153429 0.28613517 -0.93454802
0.74875504 36.471085 -29.51684 0.087071069 0.29322433 -0.95207047
3.589525 33.568016 -29.924925 0.23186414 0.26940399 -0.93469805
1.1243709 31.994034 -30.815599 0.069785289 0.26457414 -0.96183705
-0.42926326 29.587416 -31.498842 -0.022392455 0.251854 -0.96750617
-3.1076798 27.394733 -31.826159 -0.13260439 0.24329285 -0.96084583
1.9157908 27.527075 -31.859856 0.17076778 0.24692693 -0.95386869
3.541467 24.319313 -32.395844 0.19597685 0.23364204 -0.95236778
-0.2676239 25.970266 -32.375973 0.010377158 0.23383658 -0.97222048
-3.6397259 23.150282 -32.900726 -0.11916122 0.23767419 -0.96400809
3.0950274 19.694485 -33.471222 0.25129703 0.20655993 -0.94561237
-1.8422812 20.208508 -33.7519 -0.072823748 0.21279944 -0.97437835
2.2851858 17.735544 -34.074852 0.13791978 0.20093066 -0.96984792
-6.7770047 17.235525 -33.51823 -0.22973038 0.20554428 -0.95130199
-4.3556647 15.195829 -34.498631 -0.15136649 0.1984394 -0.96835428
1.2079467 14.546696 -34.843723 0.07555747 0.19187549 -0.97850651
5.7801723 14.79206 -33.806469 0.27774078 0.17232768 -0.94507313
-1.650955 17.450178 -34.304886 -0.0095161833 0.20386906 -0.97895193
-57.212845 -18.952246 38.199215 0.83458781 0.067049466 -0.54677922
3.3604577 14.053753 -34.577415 0.24131379 0.17693947 -0.95418036
-57.320843 -21.780869 37.582359 0.8324005 0.13837445 -0.53662091
-1.3336228 13.737796 -35.078079 -0.033142518 0.16056465 -0.98646873
-6.0284791 12.749073 -34.600479 -0.22567981 0.17357604 -0.95861351
-3.1929564 11.389412 -35.29863 -0.065141864 0.16560242 -0.98403883
-4.1548109 12.907687 -34.874832 -0.13404366 0.16444196 -0.97723645
-58.592396 -21.02898 35.735104 0.80320215 0.1317534 -0.58095384
-59.656635 -22.034664 34.18187 0.73787069 0.16963054 -0.65327805
-56.132435 -21.987385 39.293461 0.82533824 0.14504693 -0.5456906
-60.521423 -23.158901 33.230091 0.47926334 0.17128363 -0.86079532
-4.8257909 8.8658409 -35.505592 -0.15742724 0.15534055 -0.97523636
-0.34066808 9.1682987 -35.847324 0.011932648 0.15546012 -0.9877702
-56.457645 -25.69644 37.127651 0.77978772 0.3719894 -0.50354254
-58.85923 -25.40275 33.948364 0.68330944 0.31943783 -0.65654224
-2.9599307 6.4485712 -36.094028 -0.080146946 0.13638195 -0.98740894
-57.274826 -26.796213 35.01157 0.73767501 0.42162818 -0.52731901
3.6318331 6.9327774 -35.672379 0.21378908 0.13661331 -0.96728021
-61.341824 -25.664385 32.183006 0.32151988 0.24829802 -0.91376859
-56.487331 -28.602537 34.468571 0.74463552 0.48285466 -0.46083552
1.5552247 6.296783 -36.104237 0.096718788 0.12150621 -0.98786724
-6.292182 4.2452669 -35.904659 -0.17376581 0.13387886 -0.97564435
-3.2470469 1.9480047 -36.660892 -0.094326794 0.12191181 -0.98804855
-5.4583673 1.557078 -36.388241 -0.18895468 0.12695159 -0.97374505
6.5439258 -0.85291463 -35.820145 0.29417291 0.10500365 -0.94996655
3.0257115 1.4763131 -36.409542 0.13741273 0.10781253 -0.98462898
-57.306877 -30.724222 30.882961 0.3441771 0.65053648 -0.67701143
-8.8487778 -0.73418754 -35.978447 -0.26668903 0.12937418 -0.95505977
1.8832499 -0.35467148 -36.799721 0.11031641 0.11758916 -0.98691589
-55.827187 -32.528461 29.490427 0.12133482 0.70467806 -0.69907564
9.261694 -1.5635144 -34.91132 0.37435853 0.10993557 -0.92074424
-52.203388 -33.444298 29.348444 0.22189264 0.8880108 -0.40274116
-54.181465 -32.338268 30.609657 0.25367832 0.90006644 -0.35429889
7.1918736 -3.3704848 -35.883652 0.30658135 0.10255073 -0.94630402
-54.193344 -34.097763 27.964174 -0.0367226 0.73655283 -0.67538232
0.99063957 -2.4851432 -37.10902 0.084243856 0.087042503 -0.99263626
2.6820135 -5.4385595 -37.145397 0.14874385 0.085809775 -0.98514563
-3.9518573 -3.3927145 -37.144199 -0.090757355 0.095600449 -0.99127376
-1.6795796 -4.6769428 -37.381069 0.019486995 0.094374083 -0.99534607
5.3334761 -5.5313134 -36.649567 0.22913276 0.091038316 -0.96912861
-10.838826 -5.3075418 -35.928898 -0.30314216 0.10672121 -0.94695055
6.624094 -8.5489388 -36.552589 0.26259223 0.078465164 -0.96171123
-3.7131467 -6.2595072 -37.448372 -0.052606896 0.087277621 -0.99479401
-4.1706491 -8.7463474 -37.597 -0.10124909 0.078167766 -0.99178547
3.6995578 -11.154458 -37.456223 0.15891683 0.069066368 -0.98487324
3.4981804 -8.968401 -37.275387 0.15703423 0.069752693 -0.98512679
-1.2014323 -8.4743023 -37.716805 0.035918105 0.072371796 -0.99673074
-3.8508298 -11.86359 -37.886993 -0.05907014 0.072941847 -0.99558532
-10.361073 -14.266869 -36.94466 -0.26620209 0.081456475 -0.96046937
-5.8074126 -12.936387 -37.727604 -0.12785976 0.07648731 -0.98883843
1.1235307 -15.060709 -38.011822 0.086237013 0.059102979 -0.99451995
-2.9312615 -13.665853 -38.057171 -0.028216077 0.064803071 -0.99749905
9.1052856 -16.22603 -36.336102 0.3353847 0.056387991 -0.9403922
-13.208192 -14.911716 -36.12545 -0.3208707 0.084247313 -0.94336867
-6.0131831 -16.666082 -37.998688 -0.12824902 0.061873786 -0.98980993
3.2100372 -21.265385 -37.989708 0.16209252 0.032998633 -0.9862237
-2.1129501 -17.517311 -38.309822 -0.0014067573 0.049565133 -0.99876994
-5.3212581 -20.495417 -38.301003 -0.083116323 0.050838266 -0.9952423
3.5484583 -29.493813 -38.157207 0.16363302 0.019202054 -0.98633432
-7.8828611 -31.335875 -38.442009 -0.13341595 0.032741029 -0.99051917
-6.0998802 -33.248653 -38.68597 -0.079447918 0.020471921 -0.99662882
-8.7222328 -36.34301 -38.451019 -0.14488541 0.016778843 -0.98930615
-10.294866 -41.252827 -38.2766 -0.16247556 0.0111176 -0.98664993
3.7866702 47.799084 -24.250645 0.29311639 0.58455276 -0.75655854
7.3361773 8.5018291 -34.380707 0.34542039 0.15010124 -0.92636621
1.6668988 50.236748 21.185259 0.11750031 0.99291319 -0.017806849
-4.8097425 50.091064 20.936253 -0.097855285 0.9217518 -0.37523061
0.27281395 48.972095 -22.992285 0.062112998 0.88318473 -0.46489438
-22.482853 49.832561 -12.086282 -0.30206823 0.85665721 -0.41820243
-8.6325788 49.726734 -20.663017 -0.20687129 0.84967947 -0.48502484
-21.887716 48.764198 -13.953765 -0.34442797 0.7984342 -0.49383429
-16.39983 47.817432 -19.466469 -0.35348541 0.72231448 -0.59439874
-4.6182871 47.737648 -24.739443 -0.18554431 0.54928726 -0.8147741
-7.64779 47.816242 -23.871918 -0.27033007 0.58890849 -0.76164848
-14.101248 48.638779 -19.38777 -0.30696785 0.83654398 -0.45383361
-21.774948 47.902065 -15.636094 -0.36859989 0.76438653 -0.529006
-24.999958 47.568398 -13.599742 -0.54271245 0.57947904 -0.60800272
-23.286743 46.827557 -15.538992 -0.56683409 0.39339054 -0.72383904
-16.255634 46.631695 -20.467911 -0.44903412 0.40573487 -0.79608268
-12.684742 47.344635 -21.909256 -0.35758457 0.57797801 -0.73353571
-10.106744 47.301323 -23.120054 -0.3613812 0.47248381 -0.80384237
-7.0884652 44.779667 -25.380121 -0.27947822 0.36739123 -0.8870827
-21.205664 43.903435 -18.419613 -0.5449419 0.30692336 -0.7802797
-0.20928964 43.300053 -27.208244 0.02548809 0.3573024 -0.9336409
-26.487122 44.325752 -14.118365 -0.61925119 0.33936164 -0.70806897
-9.5042973 43.733459 -24.87114 -0.34474114 0.33839968 -0.8755793
-3.2297215 44.213844 -26.712095 -0.16797833 0.3768982 -0.91089571
-11.500565 43.435261 -24.101408 -0.39360282 0.32709777 -0.85911804
-2.5726671 41.208454 -27.868359 -0.090133861 0.32548437 -0.94124162
-5.2427511 40.752159 -27.516424 -0.26657081 0.32340017 -0.90793854
-12.47458 40.714474 -24.611326 -0.41530722 0.30399138 -0.8573851
-19.358124 41.115158 -20.573843 -0.51407486 0.28150332 -0.81023633
-27.877342 38.713188 -15.214777 -0.62642729 0.28305531 -0.72627038
-24.39435 40.06575 -17.515921 -0.57964194 0.27621049 -0.76663095
-24.582397 42.726273 -16.40295 -0.59327406 0.30729419 -0.74404049
-7.6989379 38.979652 -27.3043 -0.33611593 0.30165365 -0.89220577
-15.61145 37.534592 -24.122999 -0.47229168 0.29231846 -0.83155906
-10.09021 36.562656 -27.146919 -0.3620725 0.2981213 -0.88319147
-18.47332 39.148853 -21.837204 -0.5110634 0.27724472 -0.81360281
-21.653524 36.122375 -20.810249 -0.52888894 0.28285667 -0.80016786
-21.900734 39.588787 -19.448404 -0.54056591 0.2757704 -0.79482019
-24.79249 36.123787 -18.608795 -0.57235461 0.2695908 -0.77442306
-12.575253 33.899342 -26.962902 -0.42089018 0.28585458 -0.86089408
-6.6851583 34.564804 -29.015913 -0.26621076 0.28477567 -0.92088795
-19.663286 34.185909 -22.866785 -0.51681995 0.2876851 -0.80630916
-22.344946 33.685371 -21.198509 -0.55554503 0.27689287 -0.78402811
-27.728909 32.840332 -17.443571 -0.60564625 0.26088789 -0.75175136
-17.373817 33.108364 -24.6306 -0.49014226 0.27133751 -0.82833356
-24.921383 33.026371 -19.579941 -0.57876045 0.26912233 -0.76981139
-3.6582358 30.714518 -30.950977 -0.15537173 0.27034417 -0.95014405
-19.673389 31.123322 -23.819607 -0.50548887 0.26302958 -0.82176423
-10.08736 32.818527 -28.382936 -0.34797108 0.27667519 -0.89574939
-27.232103 30.596506 -18.654127 -0.61129791 0.2608605 -0.74717236
-15.775804 31.419964 -26.073132 -0.46280491 0.26748368 -0.84514147
-30.857819 31.412521 -15.305305 -0.66846287 0.25700447 -0.6979298
-12.248086 30.208429 -28.213455 -0.40705228 0.25991526 -0.87564403
-22.152836 30.594677 -22.440369 -0.53996891 0.26880896 -0.79760599
-7.5770068 30.603466 -29.935963 -0.28192016 0.26808393 -0.92122316
-43.263504 17.853434 18.560698 -0.64862078 0.071692094 -0.7577278
-19.638205 29.096329 -24.542871 -0.49910229 0.26176104 -0.82606179
-24.901861 29.162937 -20.940271 -0.57415056 0.26025793 -0.77628398
-5.8338881 27.973087 -31.157631 -0.24157554 0.24365579 -0.93929392
-45.27523 16.777245 20.056646 -0.43757242 -0.40839133 -0.80109102
-9.4039507 27.920168 -30.081297 -0.32982445 0.25313234 -0.90947223
-12.361941 26.435719 -29.284922 -0.40979454 0.24413328 -0.87890124
-15.504121 28.855967 -27.000555 -0.45486611 0.25584438 -0.85301852
-17.487669 25.841711 -26.819622 -0.47980022 0.24693839 -0.84191036
-28.007994 26.692123 -19.39772 -0.60311604 0.2544705 -0.7559734
-22.294205 26.666685 -23.62673 -0.54366118 0.2510151 -0.80088943
-21.844986 22.707636 -25.059433 -0.52074069 0.23444065 -0.82089382
-17.447227 23.152061 -27.593349 -0.47827107 0.23094814 -0.84730148
-23.845959 24.245632 -23.313307 -0.55091029 0.24169594 -0.79879963
-6.5901752 24.777407 -31.781923 -0.2486092 0.2409367 -0.93815941
-26.478657 23.435425 -21.643507 -0.58939034 0.24499023 -0.76980442
-15.239395 22.139019 -29.063534 -0.43074703 0.23063314 -0.87250525
-30.583469 22.172876 -18.724161 -0.63538778 0.23044068 -0.73700702
-9.5653429 24.555864 -30.919529 -0.32478967 0.23499395 -0.91612738
-7.9153147 21.030844 -32.317696 -0.27683899 0.22559579 -0.93405926
-10.878099 21.994026 -31.058119 -0.36934802 0.22286966 -0.90217024
-20.28993 21.729708 -26.324255 -0.50494874 0.22633263 -0.83294678
-24.305218 22.341545 -23.548464 -0.55751812 0.21922255 -0.80069661
-5.2704587 20.662458 -33.127243 -0.19851632 0.20534782 -0.95834416
-27.720142 20.6642 -21.499325 -0.59600449 0.22339971 -0.77127892
-26.07663 17.324326 -23.658905 -0.56643724 0.21188836 -0.79639953
-16.407398 19.582134 -29.055458 -0.45335051 0.2058782 -0.86722982
-18.016146 20.582727 -27.954752 -0.48655027 0.21030258 -0.84796327
-22.164589 18.633835 -25.944025 -0.5256775 0.21269052 -0.82366616
-9.2441864 18.613722 -32.469559 -0.32601631 0.21299024 -0.92105836
-59.533325 4.5487146 30.516603 -0.012967319 -0.41127786 -0.91141784
-13.347585 19.963234 -30.49712 -0.39940578 0.21446317 -0.89133638
-61.083904 3.3595574 31.622789 -0.77554458 0.16355377 -0.60973829
-18.928091 17.202429 -28.245832 -0.4839339 0.20372255 -0.85106122
-28.662489 16.377708 -21.988123 -0.61419648 0.19754368 -0.76402825
-15.083128 15.412135 -30.754765 -0.43712106 0.20016712 -0.87684566
-33.468258 14.984431 -18.218912 -0.67268574 0.19607893 -0.71347523
-61.105782 2.074599 31.039562 -0.86716318 0.30816934 -0.39122829
-19.630613 14.257792 -28.532026 -0.4878087 0.19235232 -0.85149473
-24.554258 15.316045 -25.242115 -0.54724246 0.19466215 -0.8140223
-21.926418 15.765878 -26.82443 -0.51298541 0.19686429 -0.83551812
-9.0870218 14.057258 -33.50169 -0.29948941 0.18919174 -0.93515378
-12.15159 13.927481 -32.373531 -0.36967537 0.18365033 -0.9108308
-26.774162 13.695677 -24.038282 -0.57982183 0.18741496 -0.79289484
-22.99827 13.844991 -26.545172 -0.53838748 0.19041224 -0.82090318
-30.890985 11.406889 -21.424829 -0.62129158 0.18768267 -0.76077068
-16.850878 13.28071 -30.274061 -0.46180707 0.18800099 -0.86682743
-62.253189 -1.5707519 31.982237 -0.51456147 0.00095719268 -0.85745293
-21.628508 12.342213 -27.767788 -0.51173335 0.19073674 -0.8377043
-9.4371252 11.518649 -33.890835 -0.30101678 0.17428179 -0.93755788
-27.675499 10.94035 -24.082714 -0.57865411 0.19362982 -0.79225427
-14.229091 12.023733 -31.894249 -0.40843645 0.17792554 -0.89527774
-25.195845 9.9260149 -26.078207 -0.55011898 0.1878961 -0.81367326
-8.1579266 9.3211889 -34.622112 -0.25639623 0.16434649 -0.95249736
-10.301116 10.076707 -33.833576 -0.34287447 0.16900671 -0.92405295
-14.759172 8.4751444 -32.327606 -0.42131543 0.16880512 -0.89106578
-33.195347 10.846342 -19.535072 -0.668863 0.17901675 -0.72150898
-22.939093 8.7538319 -27.773001 -0.51439726 0.18140471 -0.83814549
-31.752119 7.6553125 -21.580221 -0.64814371 0.1755691 -0.74100274
-28.686043 8.4315853 -23.84741 -0.60023308 0.1786364 -0.77962118
-25.794008 7.620872 -26.145212 -0.56073099 0.17716557 -0.80882204
-7.1518149 6.8075385 -35.348804 -0.21564811 0.14766091 -0.96524197
-18.877411 9.8643847 -29.936558 -0.47332162 0.18291491 -0.86168951
-34.389828 4.9269428 -19.809778 -0.68944615 0.1664861 -0.70494425
-9.450305 6.2684908 -34.785389 -0.29871252 0.15179327 -0.94219404
-11.772481 7.1743622 -33.805527 -0.36615735 0.16283205 -0.91619563
-23.242069 5.5292726 -28.276815 -0.52553946 0.17915365 -0.83169246
-63.17606 -8.2269554 32.803829 -0.1810865 -0.015530493 -0.98334455
-19.781145 6.926219 -30.033276 -0.48298311 0.17744577 -0.85746151
-31.928328 5.5078139 -21.968523 -0.63711619 0.17444105 -0.75076848
-16.592432 6.838892 -31.759035 -0.42747658 0.17049026 -0.88780451
-63.099033 -10.681751 32.605854 -0.22885786 0.0024688891 -0.97345674
-27.611715 4.3530192 -25.599251 -0.5668512 0.17740272 -0.80449235
-63.864166 -12.107647 33.053188 -0.75943291 -0.050379653 -0.64863211
-16.949968 3.7502973 -32.169624 -0.43863633 0.16435748 -0.88350713
-24.497601 2.4758325 -28.131649 -0.52392334 0.16587652 -0.83545756
-13.61813 3.9591501 -33.637997 -0.38523036 0.15854964 -0.90909821
-16.226761 0.82873225 -32.996361 -0.41133642 0.14459117 -0.8999421
-20.38718 3.0578015 -30.504715 -0.48758268 0.17085341 -0.8561964
-29.995047 2.1400645 -24.283848 -0.61428678 0.16024074 -0.7726413
-8.4721851 2.7347326 -35.576298 -0.25441617 0.13176799 -0.958076
-11.253695 3.038872 -34.670666 -0.32028341 0.14006372 -0.93691021
-26.551954 2.9555993 -26.671305 -0.56593275 0.1699544 -0.8067438
-18.951586 1.1017973 -31.622562 -0.45827079 0.15131533 -0.87583756
-5.473495 -1.6866089 -36.813057 -0.14387807 0.10543489 -0.98396271
-21.988911 1.0240756 -29.947369 -0.5064984 0.15099619 -0.84891671
-33.528614 -0.017287483 -21.714647 -0.681216 0.14229497 -0.7181204
-28.713293 -0.75619996 -25.846872 -0.58547616 0.15274212 -0.79617053
-13.038209 0.7306782 -34.372372 -0.34614673 0.13722967 -0.92808962
-14.671897 -1.8502483 -34.111263 -0.38798979 0.12834725 -0.91268337
-25.397564 -1.8045452 -28.358652 -0.5418188 0.15019232 -0.82696712
-25.700483 0.16554968 -27.774883 -0.54348379 0.15147497 -0.82563961
-33.352245 -2.5636179 -22.352753 -0.65810692 0.13684784 -0.74038374
-35.471165 -3.5792234 -20.510597 -0.69993514 0.12456114 -0.70326054
-11.860175 -3.0191338 -35.322056 -0.31881118 0.11968457 -0.94023144
-21.57716 -1.2120255 -30.582546 -0.49995151 0.14842585 -0.85323983
-30.626247 -0.96427077 -24.376024 -0.62597811 0.14234756 -0.76673895
-28.507011 -2.692976 -26.345785 -0.58759272 0.1418599 -0.79662448
-16.587938 -4.2743526 -33.590115 -0.40383103 0.12366652 -0.9064365
-19.174564 -2.7233465 -32.160275 -0.45225951 0.1352656 -0.88156939
-31.052896 -5.1116071 -24.798447 -0.62651163 0.13420409 -0.76777101
-18.700489 -5.5390387 -32.755077 -0.43291038 0.12557775 -0.89264709
-13.858969 -4.4282322 -34.721214 -0.35448337 0.11385104 -0.92810535
-24.249708 -3.7158496 -29.419914 -0.52323848 0.13341062 -0.84167868
-20.048992 -6.7854385 -32.264854 -0.46536916 0.12304933 -0.87652183
-27.913406 -4.4023809 -27.064156 -0.57295996 0.13094187 -0.80905569
-62.812141 -21.608109 32.733501 -0.26349273 0.063570127 -0.96256447
-62.003349 -23.439421 32.508816 0.20491943 0.20419079 -0.95724297
-15.215364 -7.3080311 -34.593342 -0.37723708 0.11821766 -0.91854054
-21.851536 -5.3883538 -31.08526 -0.49248952 0.13049853 -0.86047906
-24.927567 -5.8825812 -29.320225 -0.53654033 0.13194603 -0.8334955
-29.167946 -6.6559501 -26.536453 -0.58205909 0.12878278 -0.80288368
-63.05489 -24.596237 32.381145 -0.64175159 0.025008611 -0.76650476
-18.709019 -8.5806351 -33.210056 -0.41813391 0.11004078 -0.90169567
-9.358387 -7.0354819 -36.523758 -0.25044724 0.094125949 -0.96354371
-22.959618 -9.102766 -30.993273 -0.50084341 0.1207334 -0.85707617
-28.194557 -8.7181168 -27.568159 -0.57817888 0.12195887 -0.80674356
-31.431507 -8.2476349 -24.97047 -0.63729841 0.11460696 -0.76204729
-20.512318 -9.2218056 -32.35685 -0.46375361 0.11660451 -0.87825745
-33.664665 -11.260829 -23.503218 -0.67098933 0.1109779 -0.73311472
-15.816327 -9.0900574 -34.549458 -0.37620172 0.098446429 -0.9212929
-25.130489 -9.0686493 -29.676411 -0.5375483 0.11837805 -0.83488232
-12.72238 -12.106258 -36.016327 -0.31072947 0.094924562 -0.9457466
-15.035441 -11.502084 -35.114975 -0.36733663 0.1006769 -0.92462313
-19.067715 -11.207334 -33.320103 -0.42436773 0.10233963 -0.89968807
-22.207422 -12.246557 -31.871468 -0.48222587 0.11053791 -0.86904526
-60.072826 -27.612909 31.896139 0.24608164 0.37942898 -0.89189547
-25.939178 -11.299272 -29.43692 -0.54029888 0.11459718 -0.8336333
-29.06002 -11.320046 -27.321844 -0.58557212 0.11497971 -0.80242443
-16.112625 -12.861049 -34.866463 -0.3761262 0.10244353 -0.92088783
-59.598263 -29.913342 30.817915 0.026247086 0.46039781 -0.88732457
-17.142637 -14.427393 -34.579739 -0.40567899 0.10226157 -0.90827698
-26.123594 -13.868309 -29.697824 -0.54085189 0.10851278 -0.8340888
-20.683464 -14.388338 -32.935207 -0.44966024 0.10769065 -0.88668394
-25.17588 -15.701346 -30.532982 -0.52445441 0.10464097 -0.84498388
-30.141264 -13.320849 -26.740868 -0.61478257 0.10845888 -0.78120363
-16.601036 -16.078398 -34.997528 -0.36882299 0.093811892 -0.92475343
-21.256672 -16.756155 -32.895451 -0.46409908 0.092156887 -0.88097626
-29.655294 -17.136282 -27.668219 -0.59243697 0.1014505 -0.79920352
-58.292511 -32.479984 29.428787 -0.11073249 0.44546491 -0.88842523
-18.77758 -17.512419 -34.174377 -0.42105064 0.095766045 -0.90196747
-10.449075 -18.21077 -37.220577 -0.24057823 0.063690431 -0.96853793
-23.241158 -16.242699 -31.760096 -0.49984807 0.10208486 -0.86007595
-26.434656 -17.655504 -29.965826 -0.54574358 0.09910354 -0.83207119
-49.428635 -36.312767 24.304325 -0.28833917 0.73922616 -0.6086092
-24.720591 -19.797894 -31.28134 -0.51323205 0.08962436 -0.85355741
-13.40317 -21.2749 -36.60574 -0.29809937 0.078355253 -0.95131344
-17.054974 -19.244116 -35.132973 -0.3689709 0.084447138 -0.92559665
-42.907253 -36.41032 19.345346 -0.66955203 0.43870345 -0.59936577
-29.389299 -19.251381 -28.116634 -0.60145921 0.088454708 -0.79399157
-20.631105 -20.302094 -33.579247 -0.43647376 0.091852956 -0.89501607
-27.401764 -20.006901 -29.557878 -0.55928063 0.089755632 -0.82410508
-27.111788 -22.641222 -30.079103 -0.54186934 0.090204112 -0.83560807
-18.056013 -22.408249 -34.992023 -0.3936528 0.086215071 -0.91520733
-21.659552 -22.49826 -33.305897 -0.45311028 0.086992517 -0.8871997
-23.013048 -20.80398 -32.363945 -0.4936015 0.093604177 -0.8646363
-29.803665 -22.58651 -28.147701 -0.59329671 0.080141403 -0.80098462
-14.862495 -26.131033 -36.5135 -0.31453991 0.067799918 -0.9468199
-24.155315 -23.904795 -32.054733 -0.50523055 0.089625105 -0.85831779
-21.613182 -24.99032 -33.545044 -0.45647952 0.086210854 -0.88554734
-26.771584 -25.147228 -30.548571 -0.55815583 0.084209114 -0.82545191
-17.074326 -28.319666 -35.854565 -0.34883106 0.068289913 -0.93469429
-24.67392 -28.465099 -32.204494 -0.51329088 0.082699455 -0.85422087
-27.324753 -31.572279 -30.820772 -0.54976475 0.072512612 -0.83216619
-27.409744 -29.396158 -30.549334 -0.55418646 0.078224428 -0.82870883
-42.698067 -19.753538 -12.173379 -0.92028064 0.037232716 -0.38948324
-23.702635 -31.512417 -33.049751 -0.4791986 0.07353542 -0.87462062
-33.939247 -32.390823 -25.579807 -0.69618154 0.064624809 -0.71495092
-19.281214 -32.565098 -35.318336 -0.38773927 0.064713687 -0.91949463
-10.397983 -35.654476 -38.191132 -0.18238418 0.028749103 -0.98280692
-25.66585 -33.395351 -32.044479 -0.52749944 0.071553104 -0.84653676
-35.578522 -20.840338 -22.835112 -0.71686679 0.072753422 -0.69340384
-22.084332 50.162651 -10.547279 -0.14524868 0.97535837 -0.16606882
9.9415541 -50.301792 -36.863819 0.37658626 0.016182367 -0.92624027
-2.137116 35.207054 -29.840372 -0.11456971 0.27898073 -0.95343775
4.0368028 36.76318 -28.82469 0.30964044 0.3062363 -0.90019011
-58.484562 -28.370667 32.366562 0.54550678 0.52431202 -0.65384954
2.8909092 49.957405 19.978455 0.40487447 0.89578348 -0.18343568
-2.538866 50.498394 22.627031 0.013587678 0.99969375 0.020681152
0.31481868 49.0896 17.359564 -0.040478151 0.87977755 -0.47365919
-1.3011634 49.33284 18.466843 -0.14485835 0.88642621 -0.4396188
-7.4630847 49.462933 20.150095 -0.049031861 0.8627997 -0.5031625
-8.855443 48.681625 -21.987171 -0.23834614 0.78406692 -0.57308829
-4.2895808 49.092041 -22.758209 -0.087680385 0.84509313 -0.52738017
-14.999488 49.128017 -17.032385 -0.27934697 0.95997429 -0.020362092
-16.730738 48.417648 -18.047804 -0.27275151 0.90528858 -0.32566738
-19.904013 47.147503 -17.897688 -0.47705972 0.53960931 -0.69371164
-26.179823 48.238895 -11.502638 -0.47442555 0.70729232 -0.52407825
-17.965096 44.798576 -20.179726 -0.49871078 0.30664966 -0.81071168
-28.419693 45.628681 -11.698494 -0.6661374 0.39947295 -0.62982714
-16.548923 41.750755 -22.079475 -0.47155797 0.29427722 -0.83128458
-29.300426 47.402557 -9.4949226 -0.70749348 0.49508989 -0.50432026
-32.081768 44.472111 -7.5299783 -0.80284697 0.39908448 -0.44290888
-31.82296 42.321083 -9.3600588 -0.75336474 0.32839945 -0.56973273
-27.805929 40.964947 -14.335579 -0.63788468 0.29476094 -0.71149081
-29.026587 42.457176 -12.590739 -0.68857855 0.30964762 -0.65572703
-32.965759 39.332577 -9.4634218 -0.78663158 0.30660337 -0.53591526
-27.91131 35.405407 -16.430281 -0.6112721 0.26747328 -0.74485201
-29.747812 35.439209 -14.792366 -0.66150022 0.27293268 -0.69851643
-35.730095 35.688759 -6.6134419 -0.91100818 0.27225178 -0.30974662
-32.518559 35.027668 -12.201649 -0.72583866 0.27657986 -0.62981099
-34.874954 34.687927 -9.1950293 -0.838121 0.27832064 -0.46913847
-36.873981 29.331415 -8.5603685 -0.85959989 0.25789776 -0.44110861
-33.958515 28.093685 -13.403957 -0.72995979 0.25275707 -0.63503742
-34.206734 31.886246 -11.512386 -0.76405632 0.2516396 -0.59404993
-36.029213 26.827227 -11.254273 -0.81635273 0.24898365 -0.52112883
-36.467926 21.184652 12.588315 -0.94254637 0.31868833 0.10021961
-37.252895 21.204214 15.085572 -0.72825205 0.51021767 -0.45752242
-37.413342 21.987492 17.211821 -0.49951637 0.85017008 -0.16641557
-38.063484 25.383492 -8.2683582 -0.89108968 0.22520195 -0.3940092
-30.571495 25.629919 -17.575306 -0.65811509 0.25220904 -0.70941877
-35.85038 24.880665 -12.290318 -0.79776692 0.22066295 -0.56113791
-32.143246 23.656796 -16.801666 -0.67791623 0.23365718 -0.69701779
-37.351025 18.683018 13.584034 -0.93810183 0.070444033 -0.33912036
-33.993694 24.700197 -14.560173 -0.7152288 0.23212063 -0.65921748
-38.26025 23.187538 -8.9349985 -0.8828876 0.21731104 -0.41627547
-36.550358 21.795479 -12.5295 -0.80078733 0.22690172 -0.55430609
-39.569965 22.108118 -5.9619408 -0.94176877 0.21475548 -0.25875032
-11.233195 16.347191 -32.265961 -0.36967003 0.20320816 -0.90667003
-45.956638 17.343529 21.375496 -0.61264569 0.68466073 -0.39484796
-39.099537 19.982597 -8.8904362 -0.90369642 0.21261206 -0.37165707
-48.391365 16.384882 23.6544 -0.62199211 0.72909594 -0.28556082
-32.128319 19.137922 -18.253082 -0.66724658 0.21688454 -0.71256095
-38.040287 19.341705 -11.278762 -0.85888708 0.20916268 -0.46750838
-30.038792 17.961748 -20.422344 -0.63162899 0.20901126 -0.74656481
-34.185764 20.577686 -15.753715 -0.71534431 0.21930118 -0.66346782
-35.935703 15.834142 -15.316425 -0.74799448 0.19942656 -0.633035
-37.052376 17.728212 -13.391747 -0.77776265 0.19777025 -0.59663397
-38.84478 15.985125 -11.233871 -0.85299021 0.19583511 -0.48379356
-33.924648 17.653992 -16.917894 -0.7043739 0.20867188 -0.67846406
-40.099602 16.610458 -8.064786 -0.92063761 0.18984589 -0.34115234
-53.493969 13.251227 27.56741 -0.66313839 0.73560005 -0.13834719
-52.218571 13.837913 26.230518 -0.65534407 0.70225894 -0.27813026
-32.332436 13.401875 -19.61158 -0.64318544 0.19919334 -0.7393474
-34.992836 12.173488 -17.41828 -0.70908302 0.18585519 -0.6801905
-53.738087 11.95644 26.122429 -0.64180934 0.0084858676 -0.76681727
-54.819649 11.283476 26.912355 -0.52990276 -0.056539215 -0.84617156
-38.114079 13.404452 -13.377722 -0.80213302 0.18981898 -0.56617242
-40.462967 13.127455 -9.0531759 -0.92386061 0.17968188 -0.33792895
-40.89967 10.2572 -9.1515799 -0.92371541 0.14680634 -0.3538329
-39.56847 12.124146 -11.412663 -0.87778854 0.17544544 -0.44576481
-36.594566 11.281109 -15.929238 -0.74233335 0.18388182 -0.64430475
-35.077782 7.6770272 -18.505121 -0.70471382 0.1672722 -0.68949139
-37.384388 9.4683132 -15.498128 -0.77522671 0.17255487 -0.60765815
-38.897259 7.5882096 -14.052251 -0.8193242 0.15719801 -0.55135894
-39.861866 9.6414986 -11.816154 -0.87025297 0.1609856 -0.46555713
-37.821476 5.1359506 -16.132769 -0.7791214 0.14746407 -0.60928166
-35.496422 1.5664353 -19.496496 -0.70086122 0.15440278 -0.69638592
-37.145481 3.8329537 -17.172541 -0.73616481 0.15374553 -0.65910822
-39.328308 3.4358492 -14.404346 -0.82647383 0.13628154 -0.54623109
-41.755573 2.6840172 -9.8534575 -0.93737555 0.11335883 -0.32935831
-37.346897 1.6011447 -17.526239 -0.7627002 0.14141805 -0.63110173
-40.561161 3.7018893 -12.227033 -0.88398093 0.12199006 -0.45132717
-6.4085655 -7.0755849 -37.165615 -0.17493682 0.092904508 -0.9801867
-32.026443 0.15978239 -22.995115 -0.6411823 0.15043272 -0.75249934
-62.615852 -0.56576282 32.824722 -0.93829179 0.29132059 -0.18638915
-33.028316 2.8867075 -21.549114 -0.65989453 0.15806088 -0.73454475
-41.215679 0.067698315 -12.001483 -0.88463861 0.11874816 -0.45090285
-38.152168 -1.7212435 -17.173195 -0.77649784 0.11840655 -0.61889493
-39.223625 0.86282837 -15.19879 -0.82140422 0.13349667 -0.55450308
-42.04866 -1.8286017 -10.475306 -0.93596816 0.094585277 -0.33914217
-40.166241 -0.97274297 -14.210114 -0.85839409 0.11086729 -0.50086725
-36.142014 -1.088151 -19.337967 -0.72145885 0.12848251 -0.68043321
-42.963436 -4.5489516 -8.3225393 -0.95565903 0.086356856 -0.28152847
-63.446609 -3.5788028 33.850811 -0.96095085 0.14717749 -0.23433363
-39.462254 -3.8761392 -15.842091 -0.82272106 0.10224932 -0.55917352
-63.153858 -5.4241443 32.552326 -0.6337232 0.073309153 -0.77007836
-33.595516 -5.9866209 -22.760626 -0.66691703 0.1202256 -0.73536897
-34.083618 -7.7929578 -22.54217 -0.68596941 0.11512007 -0.71846592
-36.664906 -4.663341 -19.444937 -0.72660983 0.12060549 -0.67638201
-42.152874 -8.6832361 -11.933535 -0.89850378 0.079946719 -0.43162414
-36.293606 -8.6583643 -20.554192 -0.7153706 0.11196664 -0.6897161
-39.712879 -6.6655478 -15.976368 -0.83967203 0.090510048 -0.5354988
-37.887821 -9.0963955 -18.801685 -0.76840246 0.093987174 -0.63302767
-64.341805 -9.3557758 34.047375 -0.98011696 0.077611551 -0.18261218
-38.896664 -10.608541 -17.764462 -0.80087847 0.077783428 -0.59375358
-35.724075 -11.912827 -21.595537 -0.72672302 0.088808112 -0.6811657
-43.476021 -12.370217 -8.8609972 -0.96373153 0.061329558 -0.25973135
-28.356638 -13.932515 -28.189804 -0.57422173 0.11143041 -0.81108111
-63.739712 -14.702578 33.145992 -0.48333287 -0.0075201648 -0.87540442
-39.080376 -12.916808 -17.776299 -0.80549562 0.088969186 -0.58588505
-36.796631 -13.834842 -20.658455 -0.74617374 0.089663461 -0.65968567
-41.789577 -14.718593 -13.69192 -0.89574558 0.052165188 -0.44149601
-32.305897 -18.171499 -25.629309 -0.64218068 0.092571028 -0.76094323
-34.127899 -19.382753 -24.168402 -0.68903959 0.077935316 -0.72052103
-40.931416 -17.693594 -15.572923 -0.8727392 0.041664399 -0.48640549
-39.630615 -19.605286 -17.725555 -0.82609785 0.056244425 -0.56071281
-32.3871 -22.145233 -26.03227 -0.65155685 0.084444158 -0.75388521
-43.702095 -20.084139 -9.2506704 -0.96200162 0.021836169 -0.27216917
-41.581413 -21.172337 -14.655149 -0.87654483 0.048811432 -0.47883883
-33.852959 -24.290768 -24.950996 -0.69581807 0.07581906 -0.71420497
-43.490398 -23.694733 -10.241629 -0.95605224 0.023192029 -0.29227751
-36.428528 -24.836044 -22.317715 -0.74423116 0.071151316 -0.66412163
-37.059731 -22.976397 -21.508921 -0.7638045 0.067802958 -0.64187646
-62.284363 -27.527763 31.793545 -0.48740888 0.048154391 -0.87184501
-43.024845 -34.540321 21.83272 -0.52095443 0.81774342 -0.24474917
-38.980587 -26.290678 -19.419111 -0.80478454 0.055613011 -0.59095609
-62.719048 -28.49469 32.670872 -0.90015447 -0.31642318 -0.29932994
-44.733654 -35.173206 22.295517 -0.41670239 0.79482746 -0.44114441
-36.495132 -26.853968 -22.557051 -0.72978097 0.07122688 -0.67996067
-48.656982 -35.227345 26.042236 -0.032418501 0.95837009 -0.28368261
-45.607601 -37.429665 20.453083 -0.56205285 0.18140435 -0.80696291
-42.117687 -30.521099 -14.384625 -0.89527458 0.013599415 -0.44530722
-58.493824 -33.893139 29.395422 -0.68822652 -0.33009613 -0.64605016
-36.581894 -33.156136 -22.951639 -0.76511854 0.035956085 -0.64288479
-39.406322 -32.466633 -19.090122 -0.83947736 0.018191658 -0.54308999
-39.282135 -40.179619 -19.487448 -0.83925039 2.6863105e-05 -0.54374516
-38.478928 -47.474052 -20.91046 -0.82748407 0.026416088 -0.56086749
-5.5208716 50.552471 22.691055 -0.029370839 0.99266666 -0.11726109
-13.119889 -18.829239 -36.476604 -0.30957109 0.077702694 -0.94769615
-5.56214 48.520313 18.453918 -0.11894909 0.88252336 -0.45497653
-31.014874 29.294678 -15.840892 -0.64764297 0.25179756 -0.71913606
-29.329956 5.1534991 -24.15259 -0.59744465 0.18213817 -0.78095174
-47.169518 -35.461948 24.268883 -0.30526635 0.88333929 -0.35570231
-46.683586 -36.669182 21.982651 -0.47956726 0.58570987 -0.65342116
11.149985 50.539669 12.421645 -0.22872098 0.9514578 -0.20594855
11.233524 49.972157 10.164825 -0.35708994 0.89918005 -0.25290692
8.5597124 49.386978 11.903245 -0.34897184 0.8737098 -0.33889499
